ply
format ascii 1.0 
element vertex 1175
property float x
property float y
property float z
property uchar red
property uchar green
property uchar blue
end_header
 -5.20047 -0.985478   7.03791 201 200 198
 1.20916 -1.56945  9.32206 203 202 200
-0.862104  -4.97349   10.5438 159 155 152
0.970063 -1.26094  9.27051 206 205 203
0.985731 -1.26064  9.43569 206 205 203
  1.05549 -0.555716   9.16661 193 192 190
 1.35244 -2.51424  9.35693 207 206 204
 1.08863 -1.15711  9.35892 209 208 206
  0.96791 -0.842687   9.32795 203 202 200
 0.953992 -0.656412   9.25103 198 197 195
 0.740937 -0.351081   9.37385 191 190 188
 1.10992 -2.59107  9.24285 203 202 200
  1.2076 -1.77528  9.30332 209 208 206
 1.40834 -2.01074  8.29399 208 207 205
0.852534 -2.41019  6.32698 201 200 198
0.980738 -1.05454  9.41837 204 203 201
0.963134 -1.05839  9.24665 204 203 201
0.612102 -3.54649  9.67017 177 173 170
0.964844 -1.16269  9.23071 205 204 202
 0.636914 -0.459183   9.39838 189 188 186
-4.76039 -2.67279  7.40826 205 204 202
-5.35032 -3.84153  6.76546 204 203 201
 1.33722 -2.39761  9.30867 207 206 204
 1.32778 -2.09036  9.27557 207 206 204
  1.08637 -0.842064   9.37924 203 202 200
 0.633135 -0.970868   6.78528 203 202 200
 1.69843 -3.34684  9.19631 191 187 186
 1.20473 -1.36123  9.32606 210 209 207
 1.31034 -1.35891  9.27373 205 204 202
0.989755 -1.46815  9.42587 207 206 204
0.994354 -1.67752  9.42827 207 206 204
0.873165 -1.15949   9.4569 206 205 203
-3.67717 -4.90507  9.11594 188 187 183
1.44492 -2.5971 9.13747 204 203 201
0.777509 -1.47165  9.53275 207 206 204
 0.657413 -0.853329   9.61851 195 194 192
 1.09027 -1.46382  9.33097 204 203 201
0.878423 -1.26317  9.50458 204 203 201
0.663693 -1.16531  9.62014 200 199 197
 1.00677 -2.03472  18.0888 206 205 203
0.882708  -1.4688  9.49071 209 208 206
 0.645024 -0.648393   9.49918 197 196 194
    0.648 -0.748736   9.50664 202 201 199
0.483848  -2.8226  9.75703 196 195 193
-0.804103  -3.76623   9.36164 142 120 107
 0.963484 -0.959388   9.22433 203 202 200
0.384626 -3.12785  9.77457 195 191 188
0.542576 -0.96578  9.46644 203 202 200
  0.55212 -0.959825   9.65071 203 202 200
 0.56132 -1.47294  9.63228 205 204 202
 -1.31728 -0.964382    2.6527 196 196 196
0.882885 -1.36781  9.51083 206 205 203
  1.19102 -0.737599   9.30956 199 198 196
-4.74492  -2.5687    7.387 209 208 206
0.886051 -1.67783  9.49232 207 206 204
  2.4963 -2.22929  11.7398 193 193 185
-4.58903 -2.57318  7.72564 209 208 204
-4.76935 -3.23071  7.84144 209 208 204
 1.19789 -1.25449  9.29082 202 201 199
 0.653508 -0.954113   9.51617 203 202 200
-4.74334 -2.96824   7.3951 213 212 208
 -0.216786 -0.0705797    3.52467 129 120 115
 0.874484 -0.955638   9.51118 202 201 199
 -1.10108 -0.140428   2.87742 66 65 71
0.776077 -1.36947  9.57335 213 212 210
0.760111 -1.26625  9.37675 205 204 202
0.746492 -0.65816  9.34604 197 196 194
0.646814 -1.06514  9.41582 203 202 200
   1.102 -1.77896  9.38326 208 207 205
0.884435 -1.57528  9.48315 205 204 202
-3.53853 -2.00158  5.48286 205 204 202
-4.61868 -2.49293  7.98134 209 208 204
0.597061 -2.92358  9.73295 199 198 194
 1.20238 -1.15388  9.30825 198 197 195
0.482913 -3.12001  9.72856 192 188 185
 2.06699 0.207756  9.30037 186 183 178
0.562591 -2.41993  6.54961 199 198 196
0.487433 -3.00877  9.66676 197 193 190
 -4.6151 -2.08642   7.9616 208 207 205
 0.549074 -0.855532    9.6639 200 199 197
-4.76331 -2.77397  7.41262 207 206 202
-4.77319 -2.77816  7.43044 207 206 202
0.554752 -1.57299  9.47744 207 206 204
 1.00382 -2.21733   18.002 207 206 204
-4.50523 -2.95902  7.80404 208 207 205
0.550511 -3.62845  9.69762 154 150 147
-3.55888 -4.90069  9.31754 188 187 183
0.671256 -1.67833  9.58214 207 206 204
-4.60232 -2.38433  7.94718 208 207 205
-0.0918889  -0.880188     3.1796 198 198 200
0.938897   -3.735  8.60469 134 115 100
-4.50622 -3.06434  7.80579 208 207 205
-4.41726  -2.7916  8.26245 213 212 208
 -4.7099 -3.58437  7.54158 206 205 203
-3.30404 -4.92565   9.5538 136 137 132
 1.21391 -1.67411  9.33866 205 204 202
-4.6598 -2.1839 7.83022 209 208 206
-4.44322 -3.15961  7.90591 200 199 197
0.289984 -3.57075  9.93756 178 174 171
-4.45159 -3.66659  7.93374 203 202 200
-2.31067 -1.58795  3.94791 207 206 204
-4.69179 -2.50292  7.89707 197 196 192
-0.251164 -0.920733   2.97873 192 190 193
 0.35938 -1.98948  9.75171 208 207 205
 0.17347 -3.24398  9.94088 189 185 182
-3.43655   -4.945  9.78051 178 177 175
0.698189  -3.4076  9.51007 183 179 176
0.364145 -2.29729  9.76073 206 205 203
0.560811 -1.37267  9.67198 203 202 200
-4.51463 -2.86255  7.81084 208 207 205
 1.99405 -1.71599   8.9095 198 197 195
  1.6881 -1.64551  7.46189 198 197 195
-4.71512 -3.13237  7.94583 212 211 207
  1.24226 -0.736502   9.27312 202 201 199
0.364079 -2.19186   9.7267 204 203 201
0.389578 -3.35312  9.85504 187 183 180
0.779555 -1.77888  9.54669 207 206 204
0.391832 -3.25235  9.85859 191 187 184
0.387009 -3.23849   9.8118 191 187 184
0.798739 -1.10494  4.49153 201 200 198
 -5.01265 -0.329896   7.14432 195 194 192
 0.48099 -3.37894  9.68351 186 182 179
 1.24914 -1.04936  9.26664 204 203 201
0.284093 -3.40445  9.72145 184 180 177
0.527498 -3.33386  9.61399 147 143 140
 1.79862 -1.19132  10.0524 200 199 197
  1.05544 -0.189479   9.22281 187 186 184
-4.42785  -3.6171  8.31343 202 201 199
-2.45726 -4.92054  10.0555 151 152 147
-0.526129    -4.876   10.2939 159 155 152
-4.29608 -2.68402   8.4746 204 203 201
  -1.3492 -0.121238   2.94767 68 67 72
-4.43772 -4.04094  8.34506 201 200 198
 1.43469 -2.00479  8.18559 200 199 197
-4.42195  -3.7187  8.30054 199 198 196
-1.00317 -4.90133  10.3966 153 152 148
 -5.07169 -0.339541   7.03509 195 194 192
-4.28367 -2.57735  8.44882 208 207 205
 0.987641 -0.941388   7.23654 195 194 192
-0.88993 -4.97655  10.5459 153 152 148
 1.15051 -1.56931   9.3296 208 207 205
-3.98469 -3.80433  9.01097 214 214 212
 1.60729 -2.60231  9.10812 209 208 206
-5.44879 -3.07546   8.1721 207 206 204
  1.61594 -0.163014   9.09433 193 192 190
  1.09392 -0.514223   6.08674 193 192 190
-2.34078 -4.91751   9.8478 146 147 142
 1.09804 -0.94012  6.07603 200 199 197
 1.25824 -3.67679   11.797 195 191 188
0.798437 -1.26279   5.7921 204 203 201
   1.0609 -0.588426   9.20827 195 194 192
0.621027 -1.75247  10.6526 211 210 208
  1.40102 -0.369417   9.19775 196 195 193
0.521701 -1.26785  5.13518 209 208 206
-3.77288 -4.00655  7.67598 202 201 199
0.891985 -1.23042  5.23187 202 201 199
0.448016 -1.26758  6.90718 209 208 206
 0.477849 -0.462556   9.49928 199 198 196
0.598095 -3.15454  8.79196 184 180 177
 -1.19581 -0.914813   2.62544 202 202 204
-0.540589  -2.91105   7.40708 176 172 169
 0.93684 -1.47232  9.45928 207 206 204
-3.57141 -2.03853  5.38613 207 206 204
0.812469  -2.1262   6.3512 206 205 203
-1.00541 -1.03266  2.66336 199 199 201
0.781383 -2.52017  6.37263 192 191 187
 0.679976 -0.154836   9.38148 190 189 187
0.599835  -2.3507  6.52462 204 203 201
  1.17057 -0.300844   11.5381 195 194 192
0.721828 -1.07783  4.56716 202 201 199
 -1.11123 -0.981447   2.64332 196 196 198
-0.967084  -3.69334   8.82677 159 151 148
0.490826 -2.38058  6.05849 204 200 199
 1.14306 -1.25812  9.34141 207 206 204
-3.44931 -4.89532  9.47604 181 180 178
 1.30723 -1.30819  9.25796 205 204 202
 0.4089 -1.1156 4.54103 203 202 200
-3.94996 -4.28287  9.00292 212 211 209
-3.50778 -4.86778  9.71088 186 185 183
0.223626 -3.22792  9.84868 194 190 187
 0.849967 -0.704776   9.29554 199 198 196
  1.15565 -0.299868     9.112 193 189 188
-0.901351  -2.76222   8.03598 159 158 154
-3.59407 -4.74625  9.35584 189 188 186
-4.10484 -4.11821  8.80822 202 201 199
-3.69781 -4.90342  9.07322 191 190 186
-3.62582 -4.71542  9.23098 195 194 192
 1.20257 -1.42122  9.29024 206 205 203
  1.0822 -2.59559   13.332 206 205 201
  1.30204 -0.892971   9.24683 202 201 199
-3.83667 -3.15683  5.81928 207 206 204
 0.54409 -1.73591  6.01646 209 208 204
-1.01971  -2.4977  9.03307 177 176 172
-3.56858 -1.89279  5.37706 207 206 204
 1.10688 -1.69081  8.48769 207 206 204
  0.53894 -0.936654   10.4411 204 203 201
0.284405 -3.23583  8.93596 174 170 167
 1.09724 -1.42232  9.38757 205 204 202
-3.47054 -4.97119  9.78967 179 178 176
-1.86236 -1.08107  2.27469 204 203 201
-3.91711 -3.65569  8.84133 219 219 217
-3.26532 -4.95378  9.25679 150 151 146
-3.62709 -4.81538  9.24331 192 191 189
-3.55313 -3.01817  6.49337 206 205 203
-1.95001  -5.0451  10.0175 196 197 192
-3.53837 -4.91159  9.40083 192 191 187
0.726805 -3.73373   8.6043 140 121 106
0.0622428  -2.81251   9.05126 200 196 193
-1.13351 -4.44252  9.14379 137 136 132
-0.975204  -2.89351   10.3331 187 186 184
   0.174188 -0.00225815     4.04711 163 160 155
  0.173775 -0.0019886    4.05192 163 160 155
-1.15456 -3.10524  9.46737 161 156 152
-2.94985 -3.68303  5.95096 200 199 197
0.069942 -3.38998  9.99185 179 175 172
-3.80948 -4.91778  9.31132 196 195 191
-0.844628  -4.98752   10.1312 118 117 113
0.344837 -1.77917  8.13037 205 204 202
-2.50728 -4.92909  9.62214 169 170 165
 -3.6289 -4.51516  9.23078 202 201 197
 -1.67243 -0.937463   2.77544 180 180 182
-2.84151  -4.9511  9.03545 182 183 178
 -2.5734 -5.02406  9.43529 203 203 201
-0.576574  -4.29071   8.64496 169 165 162
-2.10124 -4.65522  8.83707 191 192 187
-0.976066  -4.03602   8.89624 161 157 154
 1.95355 -1.55327  8.89421 182 181 179
-3.50115 -3.79422  9.88616 214 214 212
-4.08886 -4.63775  10.1337 210 209 207
-5.15569 -3.35973  5.97183 179 178 176
 -1.14946 -0.458766   2.60876 152 150 151
-0.962466  -4.14329   8.91676 164 160 157
-1.88957 -2.51865  9.46383 170 169 165
-1.15638 -5.27961  10.9618 150 149 145
-1.09917 -3.73198   9.2815 176 158 146
-0.0701739   -3.76475    9.08419 141 118 104
-0.0110294  -0.726183    3.24464 196 196 198
-1.97499 -2.48562  9.49167 161 160 158
-0.866113   -3.1208   8.17697 162 158 155
-3.26085 -4.92954  9.47275 174 175 170
-0.822536  -1.37686    2.8508 185 185 185
-0.176644  -2.59752   9.98782 197 196 194
 -1.27443 -0.521534   2.59325 171 169 170
-3.76153 -3.62644  9.00223 218 217 215
-2.41729 -4.86928  10.0969 121 122 117
-0.313549  -1.44236     3.214 192 192 192
-1.49007 -5.02219  9.71548 206 206 204
0.263133 -3.75849  8.93653 141 119 105
-0.461527  -1.15248   2.90504 196 196 198
 -1.7927 -1.37575  2.37676 194 193 191
-1.25923 -1.27191  2.75976 202 202 204
0.112866 -3.75208  8.70087 139 120 106
-1.25821 -3.10684  4.53571 214 214 212
-1.08158 -1.48018  2.86033 194 194 194
-1.96846 -1.11875   2.1824 196 195 193
-0.63219 -1.32241  2.90646 192 190 191
  -1.886 -1.25875  2.21354 188 187 185
-0.92364 -5.09155  10.4671 139 138 133
 -1.41437 -0.597444   2.61248 177 177 177
-0.744562  -1.33951   2.84802 194 194 194
 1.20852 -3.77223  8.20874 148 125 109
-0.650868 -0.618199   2.65057 178 178 180
 -1.22712 -0.771991    2.5933 193 193 193
-3.2517  -4.954 9.57129 148 149 144
-0.536189  -1.48112   3.01921 198 198 200
-1.33763 -5.03218  9.86255 189 190 185
   0.20928 0.00325419    4.03244 183 179 176
 1.23863 -3.77757  8.82208 118 104 91
   0.249007 -0.00424922     4.00482 198 194 191
 -1.83701 -0.949282   2.29453 183 182 180
-0.473086  -3.72795   9.48264 133 115 103
-1.89303 -1.23511  2.20054 191 190 188
-1.89578 -1.23494   2.2043 191 190 188
-1.71001 -4.92755   10.484 109 110 105
-1.89784  -1.2535  2.19924 203 202 200
-1.19978 -1.25266   2.7553 195 195 195
-1.33859 -1.32032  2.81587 198 198 200
-3.63513 -4.91053  8.90472 142 141 137
-0.931425  -3.49156   9.09318 111 93 83
-1.64187 -1.14941   2.8435 172 172 174
-1.78405 -4.76255  9.65382 122 123 118
 0.0769377 -0.0342302    3.50622 189 185 182
-1.70097  -2.5952  10.0356 175 172 167
-0.524891  -1.20228     2.932 191 191 191
0.530414  -3.7098  8.94922 105 87 75
-1.26393 -5.48143  11.5207 115 114 110
-2.04727 -4.94708  10.4733 119 120 115
    0.423 0.0104011   3.86429 187 186 182
 -0.67364 -0.440043    2.6806 138 138 138
-0.630915 -0.455394   2.68992 140 140 140
-0.630204 -0.456606   2.68814 140 140 140
-1.33155 -4.94029  9.60164 194 195 190
-0.51424 -0.53317   2.7146 177 177 177
-0.748611  -1.58671   2.97597 208 209 204
0.627056  -3.7903  8.77605 141 122 107
-0.990818 -0.558217   2.57903 177 177 177
-0.682556 -0.731232   2.64306 187 187 189
-1.93702 -1.00201  2.20714 190 188 189
-0.968047   -3.7421   9.42668 140 117 101
   -1.271 -0.570742   2.57955 185 184 182
-0.965768  -4.98204   10.3629 130 129 124
-0.473481 -0.485603   2.75914 156 156 156
0.432379  -3.7558  8.60019 148 126 112
-0.0983761  -0.974418    3.19618 196 196 196
-0.450517  -3.74332    9.4284 119 97 84
 -1.40033 -0.491861   2.61946 160 159 157
-0.400669 -0.901928   2.83479 196 196 198
-0.703125 -0.297353   2.78078 82 82 84
0.118429 -3.72798  8.70829 127 111 88
0.553379 -3.76586  8.81566 136 117 103
-0.534069  -3.73304   9.51191 129 110 95
-1.69131 -1.39055  2.53875 196 194 195
-0.0103302   -3.24889    9.71337 182 178 175
-0.403329  -1.46478   3.12002 192 192 192
-0.348897 -0.452529   2.85737 165 163 164
-1.03244 -3.69742  9.72602 130 112 100
-0.318537  -3.72624   9.06143 125 102 88
-1.21033 -1.21334  2.73307 195 195 197
 -1.34776 -0.560822   2.60338 171 170 168
0.0456157  -3.73139   8.89751 144 125 111
-1.71642 -1.40813  2.49666 196 194 195
-1.33032 -1.08454  2.72649 196 197 199
 -1.00559 -0.920699    2.6206 201 201 203
-1.88812 -1.27266  2.20519 205 204 202
-0.664823    -1.342   2.90149 192 192 192
-1.21568 -1.49532  2.84852 206 206 208
   -1.7387 -0.0379257    3.12224 149 146 141
-0.979738 -0.818456   2.60352 200 200 200
-1.78581 -1.07795  2.91814 190 190 192
 -1.60777 -0.592767   2.68126 153 148 152
-1.87725 -1.29803  2.22041 192 191 189
-1.19151 -1.10743  2.68515 201 201 203
 -1.22129 -0.712597    2.5805 191 191 191
-0.417731  -1.13207   2.93304 196 196 198
  0.328598 0.00183469    3.99278 204 203 201
 -1.43998 -0.583668   2.61962 183 183 183
 -1.78656 -0.697429   2.41932 186 185 183
-0.230547 -0.869606   2.97648 201 199 200
-0.254421 -0.838884   2.94369 200 200 200
-0.701881 -0.855249   2.68543 193 193 195
 -1.04713 -0.988652   2.65317 195 196 198
  1.59967 -0.172881   7.25723 166 163 156
-1.77647  -1.3927  2.40083 193 192 190
 -1.9659 -5.00084  10.3966 150 151 146
-0.979289 -0.493955   2.58907 152 150 151
-0.254532  -3.73665   9.13374 139 115 103
-0.42347 -0.39043  2.84625 125 125 127
-0.100153  0.021581    3.7852 175 171 168
  -1.8042 -0.830673   2.36294 195 194 192
-0.518719  -3.70461   9.53549 109 90 75
-0.378233  -1.21214   3.00777 197 197 197
-1.48436   -0.714  2.63261 199 199 199
-1.87752 -1.07311  2.22056 191 191 191
-0.223164  -1.23371   3.20669 195 195 195
-0.385015  -1.24473    3.0192 188 188 188
-0.816988 -0.495741   2.61738 170 169 167
0.179043 -3.72307  8.81078 136 117 100
-1.88502 -1.28182  2.21859 193 192 190
-0.753739 -0.609102   2.62225 190 188 189
-0.752024 -0.610971    2.6165 190 188 189
 -2.86943 -0.070271   3.78557 207 206 202
-1.88151 -1.24396  2.21809 202 201 199
 -1.33208 -0.683657   2.59567 189 189 189
 -1.33154 -0.684117    2.5943 189 189 189
-1.89785  -1.3124  2.22052 205 204 202
-1.54949 -1.47315  2.96683 200 200 202
-0.231534 -0.609123   2.92037 182 182 182
-0.636148  -1.51402   2.99234 197 199 198
 -1.03889 -0.640297   2.57595 182 182 184
 -1.03849 -0.641844    2.5735 182 182 184
 -1.33561 -0.699233    2.6045 201 201 201
-1.89994 -1.09748  2.18773 201 201 201
-1.04904 -1.26584  2.73798 202 202 202
-1.05362 -1.26623  2.75369 202 202 202
 -1.20255 -0.866716   2.61152 195 195 197
 -1.8922 -1.10833  2.20389 193 193 193
-0.910322  -3.68172   9.70746 128 110 96
 -1.8211 -1.33927   2.3155 194 193 191
-0.789968 -0.547386   2.61193 172 170 171
-1.01888 -1.54522  2.88383 201 202 204
 -1.58665 -0.799843   2.69517 184 184 186
-0.340246  -3.74314   9.31363 120 101 86
 -1.50621 -0.820474   2.67093 204 204 206
 -1.81959 -0.746136   2.37556 192 191 189
-0.324125  -1.25157   3.13785 192 192 194
 -1.78337 -0.767156    2.4016 195 194 192
-0.645926 -0.399882   2.71395 123 123 125
 -1.41297 -0.629398   2.61216 193 193 193
 -1.41386 -0.629702   2.60955 193 193 193
-0.393688 -0.562998   2.78685 185 185 187
-0.707691 -0.416017   2.68329 132 132 134
-0.469243  -1.21671    2.9313 189 189 189
-0.952381  -1.59356   2.93834 210 210 210
-0.144986 -0.545782   3.05062 188 187 185
 -1.16069 -0.994645   2.66181 200 200 200
0.0256183  -3.73775   9.73103 113 97 84
-0.225039  -0.65254   2.93175 186 186 186
-1.89444 -1.25697  2.20563 204 203 201
-0.352696  -0.33313   2.92956 99 99 101
-1.46233 -1.26121  2.81671 203 204 208
 -1.16409 -0.474434   2.60317 158 156 157
 -1.32335 -0.864793   2.62242 204 204 206
-0.25454 -1.21489  3.15143 191 191 193
-0.864048  -1.04052   2.68636 197 197 197
 -1.73871 -0.629462   2.50682 188 186 187
 1.47073 -3.79403  8.31235 140 118 104
-0.280878   -1.0055   2.98002 192 190 193
-0.978561 -0.835036   2.60442 192 192 192
-0.978631 -0.834223   2.60493 192 192 192
-0.641121 -0.480764   2.67609 164 164 164
-0.981212 -0.510816   2.59158 169 169 169
-0.627401  -1.58665   3.04905 209 209 209
 0.745545 0.0243303   5.56655 203 202 198
-1.90555 -1.20844  2.18912 202 201 199
-1.56455 -1.39169  2.74123 192 190 191
-1.91668 -1.06713  2.20526 196 195 193
0.571011 -3.12136   9.4425 190 186 183
-0.467195 -0.472223    2.7622 166 164 165
-0.638083 -0.441496    2.6945 151 151 151
 0.236809 0.0108275   4.24506 204 203 199
-0.808594 -0.398047   2.66733 132 132 134
 -1.8415 -1.31309  2.28368 194 193 191
 -1.84714 -0.907706   2.28139 200 200 200
-0.446793 -0.622888   2.75385 189 189 191
-0.765562  -0.80021   2.63586 190 190 190
 -1.46894 -0.608569   2.62524 186 186 188
-1.13431 -1.55176  2.88746 202 202 202
 -1.18651 -0.480035   2.59097 145 143 144
 -1.15882 -0.883375   2.61209 193 193 193
-0.000471729     -3.74211      9.51537 110 90 79
 -1.23706 -0.687669   2.57639 198 198 198
 -1.39576 -0.945262   2.66255 203 203 205
 -1.43168 -0.633428   2.61464 185 185 185
 -1.86257 -0.764158   2.35056 189 188 186
  -1.6158 -0.529877     2.688 151 151 153
 -0.18413 -0.974397    3.1378 194 194 194
-0.835396  -1.33386   2.83513 193 191 192
-1.89705 -1.26584  2.20684 194 193 191
 -1.32817 -0.826173   2.62179 205 205 205
-1.83332 -1.30666  2.29826 193 192 190
-1.88532 -1.32749  2.23164 197 196 194
-0.766521 -0.978004   2.69584 191 191 191
 -1.18279 -0.801612   2.59376 195 195 195
 -1.13129 -0.533486   2.57633 164 164 164
-0.782008 -0.816951   2.63624 197 197 199
-0.170721 -0.721257   2.99889 189 189 189
 -0.36128 -0.500042   2.82555 167 166 164
-0.118576 -0.951173   3.15454 191 191 191
 -1.85686 -0.821414   2.31153 195 194 192
-1.51194 -1.30547  2.86062 167 167 169
-0.0354494    -1.0693    3.38161 188 188 188
 -1.67626 -0.598098    2.5755 189 188 186
-1.18199 -1.27969  2.76113 198 200 199
-1.70112 -1.08975  2.84566 189 189 191
 -0.51872 -0.573642   2.71894 176 176 176
-0.213203 -0.636937   2.93605 193 193 193
-0.943882 -0.848485   2.61286 197 196 194
-0.73008 -1.30272  2.85769 189 189 191
-1.94121 -1.06523  2.19257 203 202 200
-0.563954   -1.1127   2.78663 195 195 197
 -1.84588 -0.833649   2.30656 206 205 203
-1.87449 -1.28173  2.22247 202 201 199
-1.42798 -1.60182  2.99811 212 212 210
 -1.25519 -0.678114    2.5847 189 189 189
 -1.34752 -0.525058   2.61223 174 173 171
  0.792437 0.00983548    5.66042 196 192 189
-1.10304 -0.83179  2.60703 201 201 203
-0.549706 -0.815486   2.71959 187 187 189
-1.34435 -1.59821  2.95278 211 211 209
-0.647766 -0.606888   2.65642 176 176 178
-1.79584 -1.36429  2.34676 195 194 192
-1.8344 -1.3304 2.28274 196 195 193
-0.256953  -1.02704    3.0231 193 193 195
-0.616185 -0.789175   2.69679 193 193 195
-1.58451 -1.42076  2.72592 207 206 204
-1.30529 -0.66468  2.58658 198 198 198
-1.35219 -1.12973  2.73229 202 202 204
 -1.3506 -1.12916  2.72891 202 202 204
-1.86194 -1.06636  2.26693 194 193 191
 -1.25972 -0.626098   2.57917 192 192 194
-1.18162 -1.31155  2.79184 193 193 193
-1.17221 -1.31017  2.76917 193 193 193
 -1.25014 -0.842631   2.61937 202 202 204
-1.91322 -1.21398  2.18473 192 191 189
 -1.1784 -1.36484  2.79638 195 195 195
-0.754021 -0.384844   2.68749 118 117 122
-0.969449 -0.898273    2.6256 193 191 192
-1.89654 -1.20102  2.19341 195 194 192
-0.335159 -0.793476   2.87496 197 195 196
-0.442314  -1.35812   3.03786 193 191 192
-0.448649 -0.437198   2.78368 144 142 143
 -1.32085 -0.804447   2.61629 196 196 196
 -1.34573 -0.682418   2.59848 199 199 199
-0.413124 -0.566536   2.78344 177 177 179
-0.823153 -0.812992   2.62566 187 187 187
-0.643776  -1.48624   2.96667 193 191 192
-0.355214  -1.22871   3.03466 190 190 190
 -1.75521 -0.718821   2.42569 199 198 196
-0.208344 -0.565052   2.95174 189 187 188
-0.526602 -0.451373   2.73626 145 145 145
-0.976661 -0.473358   2.60511 149 149 151
-1.37626 -0.56246  2.60263 184 183 181
-0.416448 -0.398363   2.84622 141 141 143
  1.50856 0.0158224   8.18058 197 194 189
-0.235618 -0.502092    2.9065 168 166 167
-1.84096   -1.305  2.28847 202 201 199
 -1.8848 -1.22412  2.20503 201 200 198
-0.773896 -0.603818   2.60911 183 181 182
  0.340064 0.00193633    4.34241 198 197 193
 -1.33452 -0.799105   2.60714 205 205 205
 -1.79715 -0.791928   2.35443 207 206 204
-0.833905 -0.482067   2.61848 157 155 156
-0.434795 -0.694711   2.76946 188 188 188
  0.287044 0.00651198    4.49852 202 201 197
-1.54821 -1.35943  2.81067 165 161 158
 -0.496814 -0.0703897    3.12922 106 101 95
-0.47163 -1.31287  3.01122 192 192 194
0.537573 -3.40661   9.7315 159 155 152
-0.281661 -0.854376   2.93197 191 191 193
-0.816506 -0.480735   2.62366 157 155 156
-0.93708 -1.61757  2.94401 204 204 204
 -1.23866 -0.464931   2.60952 153 152 150
-0.338541 -0.752687   2.84778 189 189 189
-0.354952 -0.837323   2.84538 197 197 197
 -1.12267 -0.517917   2.58537 170 170 170
-0.390843 -0.661207   2.81045 188 188 190
-0.478965  -1.19354   2.90876 195 195 195
-1.04019 -0.41316  2.63503 134 132 133
-0.751334  -0.59302   2.61623 182 180 181
-0.109425 -0.453185   3.10607 162 160 161
-0.482794 -0.488511   2.75006 169 169 169
    0.26101 -0.00663055      4.0208 195 194 190
-1.55793 -1.23623  2.84617 169 169 171
-1.62253 -1.11959  2.82917 184 184 186
-1.8723 -1.0715 2.23625 194 194 194
-0.495647  -1.17042    2.8852 191 191 191
-0.225299 -0.528621   2.92255 185 183 184
-1.91393 -1.23124  2.18426 202 201 199
-0.30891 -1.36785  3.17403 194 194 194
-0.218131 -0.887135   2.97601 191 191 191
-0.217954 -0.473741    2.9638 164 163 161
 -1.64404 -0.749978   2.70958 168 168 170
-0.403847 -0.747122   2.78297 196 196 196
-1.48454 -1.17524  2.78316 193 193 195
-0.532295  -1.22916   2.90231 190 190 192
 -1.81548 -0.759351    2.3641 203 202 200
 -1.83481 -0.888956   2.26672 201 201 201
-0.109117  -1.26059   3.43128 193 193 193
-0.682905 -0.663252   2.65046 192 192 192
  -1.9084 -0.919496   2.24879 200 200 200
 -1.14642 -0.891465   2.61688 201 201 201
 -1.18505 -0.862527   2.60776 195 195 197
-1.96842 -1.04638  2.19199 200 199 197
-0.720033 -0.544886    2.6345 181 179 180
-1.71198 -1.14767  2.89413 178 178 180
-0.635493 -0.516433   2.67079 169 167 168
-0.446983 -0.704688   2.76256 195 195 197
  0.295854 0.00606494    3.45585 193 189 186
 -1.30628 -0.643875   2.58848 194 194 194
-0.633767 -0.503105    2.6715 163 161 162
-0.182902 -0.545341   2.98431 189 187 188
-0.472451 -0.781806   2.76918 189 189 191
-0.932736 -0.709424   2.58206 194 194 196
-0.837789 -0.460203   2.62819 148 146 147
 -1.13043 -0.703531   2.57154 195 195 195
-0.47147 -1.25196  2.95745 194 194 196
-0.888662 -0.740506   2.60392 192 192 192
-0.89669 -1.11162  2.71713 199 199 201
 -0.63163 -0.671078   2.66328 192 192 192
 -0.63101 -0.672072    2.6586 192 192 192
 -1.79219 -0.746048   2.37085 201 200 196
-0.841682  -0.46994   2.61823 160 160 160
 0.291599 0.0166169   3.92894 195 194 190
-0.848038 -0.429544   2.63757 138 138 140
-0.396423  -1.34708   3.08272 189 187 188
-0.187765 -0.827802   3.01458 200 200 200
-0.878023  -1.39425   2.84113 191 190 188
 -1.10072 -0.525545   2.57897 173 172 170
 -1.77601 -0.733442   2.41607 195 194 192
 -1.15365 -0.946217   2.63177 196 196 196
-1.30347 -0.80635  2.61102 204 204 204
-0.971243  -1.32337   2.80399 194 194 196
-0.612667 -0.468433   2.66881 157 157 157
-0.962845 -0.582539   2.57545 178 178 180
 -1.53914 -0.963412   2.72502 202 202 204
-0.502218 -0.501766   2.74269 165 165 165
 -1.24489 -0.622402   2.57443 184 184 186
-1.53006 -0.98093  2.71987 197 197 199
 -1.14994 -0.848094   2.60573 195 195 195
-0.401287  -1.33302   3.05896 192 191 189
 -1.17543 -0.424599   2.62386 133 133 135
-1.22192 -1.02731  2.67017 200 200 202
-0.539385  -1.37196   2.97844 188 188 188
-0.604329  -1.24345   2.90516 193 193 193
-0.493876  -1.44264   3.05744 195 193 194
-1.54838 -1.41424  2.77298 202 202 200
-0.641616 -0.523597   2.65028 175 173 174
-0.621607  -1.55297   3.03888 201 201 201
-0.355201 -0.508787   2.82502 179 177 178
-0.602055 -0.499549   2.68705 166 164 165
-1.58252 -1.18345   2.8372 179 179 181
-0.171168 -0.479272   3.01463 175 174 172
-0.846037  -1.35114   2.83491 192 190 191
 -1.22667 -0.608041   2.58079 182 182 184
-0.187434 -0.787127   2.99617 200 200 200
 -0.38118 -0.680128   2.81033 194 194 196
-0.552082  -0.41957   2.71713 134 134 136
 -1.24221 -0.536863   2.58875 166 166 166
-0.806501 -0.542886   2.60988 181 180 178
-0.864884 -0.582041   2.59934 183 183 183
-0.364062 -0.828109   2.84037 197 197 197
-0.948043 -0.449387   2.61422 143 143 145
-0.639068 -0.588798   2.65372 178 178 180
 -1.69945 -0.652789   2.56086 168 168 168
-1.15314 -0.39567  2.63862 115 115 117
-0.229355  -1.48399   3.33464 200 200 202
 -1.35573 -0.579051   2.59737 187 185 186
 -1.05389 -0.764581   2.58993 195 195 195
-0.836619 -0.441467   2.63735 147 147 149
 -1.37451 -0.744077   2.62539 205 204 202
 -0.72989 -0.436198    2.6642 147 147 149
-0.518174 -0.588631   2.72139 187 187 189
-0.797539 -0.913198   2.64565 190 190 190
-0.780094  -1.44703   1.58758 206 206 206
 -1.00696 -0.866872    2.6189 202 202 202
-1.92011 -1.16602  2.17679 198 197 195
-1.52073 -1.40119  2.09551 208 207 205
 -0.45666 -0.433302   2.77816 151 149 150
-1.23771 -0.48278  2.60408 157 155 156
-0.577058  -0.51656   2.68281 170 168 169
-1.09724 -1.35487  2.79255 199 199 201
-0.517581 -0.842284   2.74479 192 192 192
-0.853783  -1.01263   2.68743 191 191 191
-0.300349 -0.707218   2.85375 190 188 189
-1.22522  -0.5962  2.57354 185 185 187
-0.464929 -0.445038   2.76385 154 152 153
-0.605511  -1.10743   2.79605 191 192 194
-0.645265  -1.57345    3.0281 206 206 204
  -1.906 -1.22171  2.18871 196 195 193
-0.535608  -0.50153   2.71768 170 170 170
-0.232595 -0.542358   2.92893 180 180 180
-1.56961 -1.40228  2.73898 202 201 199
-0.273109 -0.515884   2.90322 179 177 178
-1.85027  -1.3928  2.31666 209 207 208
 -1.01445 -0.434978   2.61922 139 139 141
-0.155297    -1.277   3.32309 189 189 189
 0.657652 0.0314498   7.77063 202 198 195
-1.85956 -0.90793  2.26978 200 200 200
-0.726813  -1.59108    2.9896 207 207 205
-0.506994 -0.587812   2.72381 181 181 183
-0.068944 -0.601041   3.11885 191 191 193
 -1.29366 -0.589469   2.59061 187 185 186
-1.51716 -1.21473   2.8125 187 187 189
-0.994836  -1.47068   2.84905 200 200 200
-0.685884 -0.868766   2.67832 190 191 193
-1.11819 -1.13287  2.71307 202 202 204
 -1.5133 -1.41127  2.82673 200 199 195
-0.266154 -0.499493   2.91134 177 175 176
-1.13864 -1.26188  1.92489 175 175 177
 -1.25156 -0.470518   2.62167 148 147 145
-1.10058  -2.0058  3.58158 179 175 172
-1.38886 -3.56145  6.49072 119 120 115
-0.774294 -0.551999   2.61157 181 180 178
 -0.83691 -0.792736   2.62529 198 198 198
-1.51713 -1.33983   2.8786 146 146 148
-1.95053  -1.1634  2.19013 202 201 199
-0.705652 -0.743525   2.64036 192 192 192
-0.976147 -0.573716   2.57645 181 181 181
 -1.23367 -0.524457   2.59738 170 168 169
-1.44437 -1.26039  2.81237 199 200 204
-0.363596 -0.515371   2.81735 174 172 173
-0.634544 -0.541451   2.65715 171 171 173
 -1.49993 -0.485631   2.66355 156 156 156
-1.05571 -1.40031  2.79752 196 196 196
 -1.02142 -0.628075   2.56622 186 186 188
 -1.04208 -0.749251   2.58753 198 198 198
-1.89914 -1.10367  2.19544 201 201 201
 -1.82747 -0.763778    2.3472 200 199 197
-0.482226  -1.61034   3.86926 203 203 203
 -1.0219 -1.83458  3.71688 155 155 157
 -1.16605 -0.455367   2.60994 149 147 148
-0.750954 -0.872316   2.66527 193 194 196
 -2.0202 -1.14787  2.19258 209 208 206
-0.569103 -0.462028   2.69626 157 157 157
-0.916013 -0.583136   2.58497 179 179 181
 -1.74691 -0.694488   2.44401 195 194 192
-0.494742 -0.461705   2.75786 156 156 156
-0.218432  -1.29764   3.23292 194 194 194
-0.322518 -0.775084   2.87329 194 194 194
 -1.03501 -0.959428   2.64816 198 199 201
  -0.8655 -0.488342   2.20126 74 74 76
-0.691301 -0.618282   2.63381 187 187 189
-1.99742 -1.23557  2.19241 204 203 201
-1.65112 -1.17694  2.87572 167 167 169
-0.504796 -0.786095   2.72443 193 193 195
-0.984591  -1.39903   2.82458 191 191 191
0.000898957    -0.79424     3.29054 191 191 191
-0.440452 -0.787601   2.77098 194 194 196
-0.797997 -0.621035   2.59521 188 186 187
-0.897535  -1.36077   2.80712 188 188 188
 -0.85086 -0.755805   2.59833 196 194 195
-0.454514  -0.93499   2.80691 197 197 199
-0.913932 0.0268416   3.71826 70 70 72
-0.225545  -1.32614   3.29004 194 194 194
-0.538816 -0.536782   2.71203 175 175 177
-0.410004  -1.27129   3.00506 191 190 188
-0.459786  -1.19651   2.91559 191 191 191
-0.234984  -1.52044   3.34519 199 200 202
 -1.25175 -0.957135    2.6466 197 197 197
 -0.73084 -0.290217   2.79583 82 82 84
-0.505708 -0.492219   2.72831 167 167 167
-0.979103 -0.728835   2.57621 195 195 197
 -1.06505 -0.287026    2.7067 53 53 55
 -0.89423 -0.840311   2.60257 196 195 193
 -1.08928 -0.502663   2.59385 166 165 163
-0.389776  -0.76325   1.77929 175 173 174
-0.555842  -0.56518   2.69888 180 180 182
 -1.28842 -0.752723   2.59883 200 200 200
-0.960625 -0.588577   2.58797 184 184 186
 -0.43091 -0.491706   2.81011 171 169 170
 -1.16864 -0.849441   2.61021 200 200 200
-0.571373 -0.394298   2.76664 131 131 133
0.0633133 0.0934926    3.7356 184 180 177
-0.843952 -0.888421   2.63809 188 188 188
-1.29745 -2.98377  5.06348 251 251 251
 -1.16725 -0.551827   2.58414 175 175 175
-0.922547 -0.593017   2.58072 184 184 186
-1.56292 -2.13805  7.71708 206 206 206
 -1.10555 -0.502322   2.57654 162 161 159
-0.915974 -0.574526   2.58442 180 180 182
-0.575503 -0.470037   2.69707 160 158 159
-1.27987 -0.49977  9.45464 191 191 191
-0.898874 -0.873698   2.62339 191 191 191
-1.01137 -1.19174  2.52679 200 200 202
-1.2262 -4.2897 9.18791 251 251 251
 -1.8895 -1.73873  2.13081 199 198 196
-1.46706  -1.2678  2.84815 202 203 207
-4.99969 -3.81688  5.99451 203 202 200
-5.01403 -3.73527  6.01179 206 205 203
-1.78212 -1.31015  3.03862 195 197 196
0.269139 -3.51125  9.12088 173 166 160
-5.53486 -2.60704  6.31946 193 192 190
 1.34185 -3.73684  9.34362 172 165 159
 -0.242276 -0.0583595    3.55914 197 193 192
  -1.666 -1.30881  2.67495 202 201 199
0.497007 -3.71544  9.76637 165 160 157
 -0.934899 -0.0207203    3.03821 181 172 167
-0.963449  -3.67615   10.3894 164 155 148
 2.00904 -1.66687  8.92033 204 203 201
-0.916633 -0.772404    2.6056 198 198 198
-1.05443 -3.46741  9.49835 167 162 158
  1.31333 -0.339005   6.58843 188 187 182
  1.42789 -0.480811   6.48859 188 187 185
 1.87044 -1.56315  9.01511 201 200 198
-4.83443 -2.37454  5.74158 203 202 200
  -0.21942 -0.0614997    3.51814 192 181 175
 1.94004 -1.56121  9.05095 195 194 192
 1.63507 -3.33453  8.18701 187 183 180
  1.8169 -2.48174  8.07829 202 201 199
 1.59679 -2.37623  8.11693 208 207 205
-1.80482 -1.24098  2.39604 202 201 199
-1.50352  -5.0716  9.77363 247 247 245
 1.77838 -1.87774  9.13848 198 197 195
 1.60637 -2.66294  8.13665 201 200 198
  1.8774 -1.34983  9.08547 202 201 199
 1.62436 -2.58325   8.2364 202 201 199
-1.98769 -1.27841   2.9549 202 201 199
 1.60199 -2.47446  8.13441 203 202 200
 1.28664 -2.19153  8.22575 207 206 204
1.28784 -1.2549 9.10686 205 204 202
 1.74345 -1.35169  9.01721 200 199 197
 1.39105 -1.05054  9.04491 201 200 198
 1.35864 -3.33669  9.32985 190 186 185
-0.862091  -4.97349   10.5438 159 155 152
-2.01469 -1.23769  2.83756 199 197 198
 1.35285 -2.51459   9.3585 207 206 204
 1.48264 -1.92715  8.66622 208 207 205
  1.41153 -0.839774   9.24005 202 201 199
 0.973309 -0.644438   9.43596 198 197 195
-4.11162  -5.2528  9.92466 190 189 187
1.19385 -1.8189 8.33948 207 206 204
1.29632  -1.765 9.10727 206 205 203
 1.41718 -1.45984  9.18223 205 204 202
0.612108  -3.5465   9.6702 177 173 170
 1.42352 -2.30458  8.36536 208 207 205
 1.32543 -2.38387  9.18845 207 206 204
-5.02452 -3.59895  7.05343 206 205 203
0.867488 -2.99088  6.99106 180 176 173
0.890264 -1.54205  8.47944 207 206 204
0.878415 -1.26315  9.50432 204 203 201
0.882684 -1.46879  9.49051 209 208 206
-5.49333 -2.50102  6.26847 203 202 200
0.481028 -3.22738  9.74262 194 190 187
-4.43613 -3.28552  6.55398 209 208 206
0.631937 -2.27491  10.4614 211 210 208
 0.583833 -0.481456   7.31351 191 190 188
0.383587 -3.13546  9.82106 195 191 188
-4.19807 -2.81321  6.88901 209 208 206
 2.49636 -2.22933    11.74 193 193 185
 -1.10104 -0.140451   2.87737 66 65 71
-4.18997 -2.90319  6.88099 206 205 201
-4.73373  -2.6793  7.56434 208 207 205
-3.57781 -2.14916   5.4021 207 206 204
 1.19866 -1.87141  9.15989 204 203 201
-4.98812 -3.60652  7.17688 218 217 215
-4.63344 -2.77115  7.60301 208 207 203
0.485277 -3.12861  9.77692 192 188 185
-4.63312 -2.70633  8.01266 209 208 204
-4.58702 -3.43412  8.16213 205 204 202
 1.99402 -1.71598  8.90936 198 197 195
-1.98206 -1.44016  2.50172 210 208 209
-4.04808 -3.27351  7.20114 219 218 216
-4.71503 -3.13235  7.94569 212 211 207
   0.978 -4.18361  8.52171 190 186 185
0.475452  -3.6833  9.34403 127 118 111
-4.23287 -2.76261    8.351 208 207 205
-2.45695 -4.92023  10.0548 151 152 147
-1.00309 -4.90101  10.3958 153 152 148
-0.0455692  -0.353901    3.65553 172 170 171
-0.894616  -4.98395   10.5851 153 152 148
  1.19001 -0.554242   8.47342 195 194 192
0.596878 -3.10474  9.74777 195 191 188
 1.07472 -2.92073  9.42389 202 201 199
-0.815513  -4.96386   10.4745 163 162 158
0.754813 -1.07681  8.69692 199 198 196
-1.00522 -1.03277  2.66307 199 199 201
 -1.19284 -0.914477   2.62241 202 202 204
 -3.5714 -2.03847  5.38616 207 206 204
  1.53907 -0.622271   10.1381 200 199 197
0.996127 -2.50887  6.20967 203 199 196
0.652235 -3.43327  9.63285 183 179 176
-0.243118  -3.22302   10.0535 193 189 186
 1.30443 -2.33004  8.28796 206 205 203
0.642222 -3.01933  9.63437 198 197 193
1.43677 -1.3117 10.2294 205 204 202
 1.19804 -1.61221  9.20816 210 209 207
0.435194 -3.13393  9.79051 193 189 186
-0.882481  -3.78391   8.82199 158 155 150
  1.19818 -0.564398   6.01337 192 191 189
 1.35953 -2.98547  9.35023 200 199 197
-3.70181 -4.03886  8.21125 210 209 207
 1.01347 -2.97328  9.38966 201 200 198
 1.19763 -2.05016  8.32934 207 206 204
-4.89879 -4.42838  9.10347 203 202 200
0.834191   -1.098  10.2999 197 196 194
1.32197 -1.9301 9.24725 207 206 204
-0.244687  -2.82213   7.18959 186 182 179
-3.47064 -4.97129  9.78994 179 178 176
-4.12625 -2.92727  6.95677 210 209 205
-3.62705 -4.81531  9.24323 192 191 189
-1.86233 -1.08106  2.27468 204 203 201
-0.776287 -0.938966   2.67573 196 196 198
-0.549614  -3.43654   10.2449 179 175 172
-3.90255 -2.31694  6.73292 209 208 204
-3.53833 -4.91152  9.40074 192 191 187
-0.425421 -0.912473   2.81735 196 196 198
-4.15144 -2.85462  8.47511 205 204 202
-1.02341  -2.5873  9.07005 179 178 174
-0.883494  -3.88577   8.88044 159 155 152
-1.13352 -4.44256  9.14387 137 136 132
0.890511 -1.22785  3.77921 169 168 166
 1.55321 -2.08187  7.23496 201 197 188
-0.263662   -1.1401   3.07771 197 197 199
-0.662372 -0.686957   2.64542 192 192 192
-3.80896 -3.67089  7.55099 206 205 203
-4.39714 -3.71518  9.83702 218 218 216
-1.08032 -2.75097   9.5398 171 170 166
-0.560435    -3.602   9.04656 135 116 101
-0.0503418   -2.77084    10.0056 202 201 199
-1.30235 -1.98993  3.63752 220 219 217
-0.287186  -3.65155   10.2121 182 178 175
-3.22442 -2.53532  8.76744 212 212 210
-1.14935 -0.45887  2.60864 152 150 151
-0.962408  -4.14336   8.91698 164 160 157
-3.63449 -3.25706   5.2921 212 211 209
  0.140198 -0.0181676    3.41386 204 196 194
-1.88956 -2.51856  9.46365 170 169 165
-0.408703  -1.36673   3.08377 198 196 201
-0.011122 -0.725987   3.24618 196 196 198
-3.26082 -4.92951  9.47266 174 175 170
-2.95251 -4.94065  9.32002 200 201 196
-1.18831 -4.95511  9.90634 171 170 166
-0.775763  -3.68316   8.15055 159 155 152
 -1.27438 -0.521514   2.59325 171 169 170
-0.46336 -1.15404  2.91024 196 196 198
0.332564 -1.49743  10.6185 205 204 202
-1.05611 -5.10752  10.6174 143 142 137
-0.751147  -4.02811   8.72614 160 156 153
-0.978854  -3.83457   8.91731 162 158 155
-0.327123  -1.07747   2.99479 196 196 198
0.112887  -3.7522  8.70131 139 120 106
-3.26394 -2.73496  9.01918 218 217 215
-0.923638  -5.09163   10.4673 139 138 133
-2.89942 -4.99963   9.4012 205 206 201
 -1.60777 -0.592766   2.68127 153 148 152
-1.33762 -5.03217  9.86254 189 190 185
-3.00922  -4.1149  8.51679 200 199 197
-1.06342 -2.76481  9.10584 174 170 167
-2.67394 -4.83827  8.96174 207 208 203
 1.70453 -3.78031  8.40646 125 107 95
-0.473078  -3.72791   9.48249 133 115 103
-0.223979 0.0161619   3.51164 151 148 143
-0.182796 -0.102062   3.44019 170 165 161
-1.79509 -2.59291  9.95296 167 166 161
 -0.840928 -0.0400628    3.13012 77 78 80
0.507587 -3.32506   9.7456 187 183 180
-0.487433 -0.163871   3.36876 89 89 91
-4.02971 -3.57126   10.297 219 219 217
-1.33155 -4.94029  9.60164 194 195 190
-3.43773 -5.10503  9.73417 177 178 173
-0.991187 -0.558261   2.57988 177 177 177
-0.665883 -0.598808   2.64301 187 187 189
-0.0986589  -0.974216    3.19465 196 196 196
-0.757451  -3.72063   9.53415 132 113 99
 -1.26778 -0.770686   2.59537 203 203 203
-1.94206 -1.12588  2.18429 204 203 201
-0.400609 -0.901907   2.83478 196 196 198
-0.533919  -3.73279    9.5108 129 110 95
0.598641 -3.57205  9.90428 180 176 173
-1.03251 -3.69756  9.72675 130 112 100
0.0408728  -3.73576   8.91234 144 125 111
-1.88812 -1.27267  2.20519 205 204 202
-0.070883   -1.0198   3.27188 196 194 195
-0.664788  -1.34203   2.90129 192 192 192
-1.96563   -4.998  10.3922 150 151 146
-0.459789  -0.94891   2.81512 196 196 198
 -0.867362 -0.0387609    3.12192 79 80 82
-0.522303  -3.74731   9.29259 139 120 105
-1.19222 -1.10738  2.68615 201 201 203
-0.979694 -0.818461   2.60351 200 200 200
-0.417743  -1.13207   2.93307 196 196 198
 -1.15624 -0.927948   2.63387 201 201 201
  0.328608 0.00183494    3.99276 204 203 201
-1.96264 -1.03311  2.21551 202 201 199
-0.252505 -0.838472   2.93356 200 200 200
-0.193248  -0.90202   3.02579 196 196 196
-0.787653 -0.316065   2.72665 87 87 89
 0.546849 0.0122779   3.81667 206 202 199
-0.254508  -3.73661   9.13357 139 115 103
   0.821682 -0.00448758     5.74327 205 202 197
 -1.26803 -0.608476   2.58377 190 190 192
-0.213242 -0.837338   3.00648 200 200 200
-0.379351  -1.21266   3.00135 197 197 197
   0.644077 -0.00554002     7.71139 207 203 200
-0.345714 -0.913012   2.88577 196 196 196
 -1.48433 -0.713942   2.63261 199 199 199
 -1.35541 -0.906469   2.64708 203 203 205
0.0460731  -3.74534   9.60573 119 101 89
0.179071 -3.72311  8.81091 136 117 100
 -1.15795 -0.866421    2.6094 202 202 202
-0.281104 -0.775731   2.89467 197 197 197
-1.13966 -1.50442  2.86477 204 204 204
-0.523146 -0.954539   2.77285 195 195 197
-0.94899 -3.46926  9.17159 112 98 87
-1.78014 -1.40401  2.38947 207 206 204
 -1.70398 -0.647795   2.54107 185 185 185
-0.564504 -0.506158   2.69965 172 172 172
 -1.50482 -0.743442   2.65242 201 201 203
-1.41717 -1.19231  2.77568 202 203 205
-1.15752 -0.49957  2.59163 164 164 164
-1.43083 -0.60885  2.61555 190 190 190
 -1.49806 -0.820989   2.66084 204 204 206
 -1.41229 -0.629324   2.61142 193 193 193
 -1.63923 -0.575343   2.65993 149 148 146
 -1.18678 -0.844184   2.60912 202 202 204
 -1.14815 -0.996681   2.63228 200 200 200
-0.302894  -3.71542   9.11291 135 112 98
-0.214985 -0.549604   2.93244 188 186 187
 -1.8792 -1.24347  2.20968 202 201 199
0.0256179  -3.73777   9.73119 113 97 84
-1.49343 -1.32754  2.87307 182 182 184
 -1.84422 -0.908191   2.28055 200 200 200
-0.0688501  -0.882212    3.19243 199 199 201
 -1.16411 -0.474444   2.60315 158 156 157
-1.46233 -1.26121  2.81672 203 204 208
 1.47081 -3.79409  8.31268 140 118 104
-0.551383  -0.39485   2.76623 133 133 135
-0.981345  -0.51125   2.59129 169 169 169
-0.152201 -0.684125    3.0112 199 199 197
-0.733484 -0.608575   2.63188 188 188 188
 0.785664 0.0259013   3.59638 205 204 200
 0.745544 0.0242993   5.56658 203 202 198
-0.623052  -1.58487   3.03802 209 209 209
-1.90768  -1.2074  2.19018 202 201 199
-1.73208 -1.36059  2.47207 206 205 203
 -0.41544 -0.701785   2.79077 197 197 197
-0.446799 -0.622877   2.75382 189 189 191
0.570967 -3.12132  9.44228 190 186 183
 -1.46896 -0.608544   2.62528 186 186 188
-0.865138  -1.04142   2.69167 197 197 197
 -1.23707 -0.687666   2.57638 198 198 198
-0.188036 -0.801526   3.01361 201 201 201
-0.835379  -1.33391   2.83509 193 191 192
-1.30937 -0.75364  2.60543 204 204 204
-0.782227 -0.815213    2.6417 197 197 199
-0.952654  -1.13284   2.70386 199 199 201
-0.433685 -0.575591   2.76028 186 186 188
 -1.19785 -0.464555   2.59971 151 149 150
-0.366121  -0.79536   2.80632 198 198 198
 -1.67624 -0.598103   2.57549 189 188 186
-0.296693 -0.900086   2.91391 199 199 199
-1.17955 -1.27929  2.76773 198 200 199
-0.213727 -0.638658   2.93665 193 193 193
-0.941436 -0.851564   2.60786 197 196 194
-1.87449 -1.28173  2.22248 202 201 199
 -1.84592 -0.833633    2.3066 206 205 203
-0.418245  -1.01017   2.84881 194 195 197
 -1.19811 -0.558389   2.57176 179 179 179
 -1.28698 -0.928101   2.64234 201 201 201
 -1.24587 -0.601624   2.58309 188 188 190
-1.10306 -0.83177  2.60707 201 201 203
-0.797544 -0.677439   2.60548 194 194 194
-1.04075 -3.70972  9.84123 130 112 102
-0.616208 -0.789177   2.69684 193 193 195
-0.260489  -1.02832   3.00448 193 193 195
  -1.3053 -0.664674   2.58659 198 198 198
-1.35059 -1.12917   2.7289 202 202 204
 -1.25016 -0.842601   2.61944 202 202 204
 -1.39432 -0.612012   2.61054 192 192 192
 0.979588 0.0585344   4.60749 207 206 202
 -0.4423 -1.35816  3.03775 193 191 192
0.325735 -3.75958  9.07093 130 112 100
-0.652593  -3.73197   10.0358 106 88 76
  -1.5935 -0.505981   2.70788 162 163 167
-0.94658 -1.05999  2.67967 199 199 201
-0.308175  -1.01469    2.9512 198 196 199
-0.529476  -1.06948   2.84084 196 196 198
 -1.49052 -0.355677   2.88748 130 129 127
-0.208341 -0.565064   2.95169 189 187 188
-0.416467  -0.39834    2.8463 141 141 143
-0.684909 -0.476537   2.66308 162 162 162
 -1.67289 -0.612501   2.71283 110 108 111
-1.88478 -1.22411    2.205 201 200 198
-0.926516 -0.417331   2.63655 138 138 140
-0.530422 -0.763413   2.72431 197 197 199
-1.60264 -4.97059  10.3191 121 122 117
 -1.34094 -0.796622    2.6152 205 205 205
 -1.79706 -0.791919   2.35429 207 206 204
-0.742952 -0.468475   2.63909 161 159 160
 0.53756 -3.40654  9.73128 159 155 152
 -1.12266 -0.517887   2.58544 170 170 170
  0.207138 0.00375654    3.98881 198 194 191
-1.67231 -1.01907  2.82643 191 191 193
 -1.10584 -0.871969   2.60326 199 199 199
-0.895984  -1.26625   2.77895 196 196 198
-0.242417   -1.2682   3.18756 196 196 196
  -1.60436 -0.0659198    3.04487 149 146 139
-0.268733 -0.813712   2.92511 199 199 199
-0.244947  -0.58465   2.89886 188 188 188
-0.482473 -0.484767   2.75514 169 169 169
 -1.02907 -0.579346   2.57125 182 182 182
-1.73021 -1.41817  2.49532 208 207 205
-0.198738 -0.565117   2.94498 190 188 189
-0.225302 -0.528625   2.92255 185 183 184
-1.31633 -1.34563   2.8151 201 201 203
-1.89161 -0.88783  2.27005 200 200 200
-0.886522  -1.34985   2.81685 193 193 193
 -1.14906 -0.413926   2.62648 129 129 131
-0.403736 -0.747231   2.78213 196 196 196
-0.627277  -1.46542   2.97255 194 192 193
 -1.50101 -0.969017   2.71051 203 203 205
-0.111915  -1.26121   3.44392 193 193 193
-0.682909 -0.663245   2.65048 192 192 192
-0.298306 -0.914437   2.92107 197 197 197
 -1.18463 -0.495174    2.5943 163 161 162
-0.593558  -1.49599   2.98084 198 198 200
-1.96841 -1.04637  2.19198 200 199 197
-0.720029 -0.544876   2.63445 181 179 180
-0.446313 -0.704255   2.75708 195 195 197
  0.295851 0.00606491    3.45585 193 189 186
-0.769894 -0.394221   2.68304 131 131 133
  -1.3076 -0.642036   2.59123 194 194 194
-0.786761 -0.479487   2.63242 162 160 161
 -0.93274 -0.709424   2.58206 194 194 196
-0.751897 -0.573008    2.6153 185 183 184
-1.76892 -1.39697  2.41513 204 203 201
 -1.13129 -0.698738   2.57676 195 195 195
-1.66746 -1.40362  2.57924 205 204 202
-0.741027 -0.851619   2.65367 195 195 197
 -1.19266 -0.851561   2.60604 204 204 206
-0.800272 -0.603236   2.60271 190 188 189
-0.841673 -0.469941   2.61824 160 160 160
-0.991689 -0.836081   2.60521 202 202 202
-0.392663 -0.398455   2.85082 140 140 142
-0.354737 -0.838675    2.8431 197 197 197
-0.790536 -0.887374   2.69924 193 194 196
 -1.93546 -0.979787    2.2147 204 203 201
-0.168158 -0.636552   2.98646 195 193 194
 -1.65645 -0.588715   2.63857 150 149 147
-0.878042  -1.39423   2.84119 191 190 188
 -1.30348 -0.806324   2.61106 204 204 204
-0.971247  -1.32334   2.80401 194 194 196
 -1.85054 -0.934954   2.28432 201 201 201
-0.143304 -0.583495   3.01565 192 190 191
 -0.35615 -0.918674   2.88561 193 194 189
-0.355947 -0.918914   2.88403 193 194 189
-0.367869 -0.721013   2.80981 198 198 200
-0.290754 -0.769495    2.8938 196 196 196
 -1.75024 -0.723382   2.43688 200 199 197
-0.399702  -1.33387   3.06916 192 191 189
 -1.74495 -0.848725   2.78895 182 182 184
-0.366049 -0.744851   2.82799 198 198 200
-1.54838 -1.41425  2.77298 202 202 200
-0.221072 -0.670253   2.93223 195 195 195
-0.604354  -1.24346   2.90528 193 193 193
-0.88685 -0.59554  2.58821 185 185 187
-0.49387 -1.44265  3.05743 195 193 194
 -1.218 -1.2886 2.76133 201 201 201
-0.62161 -1.55298   3.0389 201 201 201
-1.90274 -1.13582    2.185 201 200 198
 -1.91286 -0.976701   2.22275 203 202 200
-1.89738 -1.09269  2.21738 200 200 200
 0.494935 0.0147131   4.25115 207 206 202
-0.187432 -0.787129   2.99613 200 200 200
-1.22198 -1.02769  2.67147 200 200 202
 -0.86601 -0.797398     2.617 196 196 196
-0.436075 -0.837217   2.80847 198 198 198
-0.240519 -0.662292    2.9134 193 193 193
-0.364068 -0.828101   2.84039 197 197 197
-0.894656 -0.820024   2.61405 198 197 195
-1.00719 -0.86697  2.61918 202 202 202
-0.750525  -1.55249   2.57916 209 209 209
-0.882404 -0.537839    2.5948 175 175 175
-1.90072 -1.21925  2.19494 200 199 197
 -1.35809 -0.552852   2.60955 180 179 177
-0.532629 -0.454953   2.76248 160 160 160
 -1.37395 -0.742773   2.62941 205 204 202
-0.729893 -0.436198    2.6642 147 147 149
-0.518086  -1.41175   3.01903 190 190 190
-0.749201 -0.435344   2.67137 148 148 150
  -1.4383 -0.731857   2.63291 202 202 202
 -1.65581 -0.832262   2.73091 183 183 185
-0.657415 -0.398199    2.6998 131 131 133
-0.960654 -0.072162   3.85806 146 146 148
-0.445415  -1.15913   2.89753 197 197 199
  0.183122 -0.0101291    3.73809 196 195 191
 -1.7529 -1.41709   2.4268 208 207 205
 -1.82058 -0.835212   2.33551 206 205 203
 -1.13349 -0.848366   2.59551 201 201 201
-0.896413 -0.514942   2.59348 169 169 169
-1.10058 -1.36007  2.80135 199 199 201
 -1.02159 -0.734947   2.59041 198 198 198
-1.38296 -1.42269  2.87381 205 205 207
-0.64516 -1.57189  3.03508 206 206 204
 -1.22685 -0.594699   2.57731 185 185 187
-0.464914 -0.445048   2.76383 154 152 153
 -1.33636 -0.633413   2.59372 192 192 192
-0.78181 -1.44549  2.88421 190 189 187
-1.57036 -1.40199  2.73987 202 201 199
  0.782587 0.00565191    6.44805 205 201 198
-1.85027  -1.3928  2.31666 209 207 208
-0.826854  -1.31615   2.78032 193 193 195
 -0.52494 -0.520226   2.72194 176 176 176
-0.494394 -0.830196   2.76127 193 193 193
-0.726813  -1.59108    2.9896 207 207 205
 -1.59708 -0.553968   2.68684 165 166 170
-0.314408 -0.702218   2.84196 193 193 193
 -1.78056 -0.730107   2.40453 203 202 200
-0.172674 -0.951413   3.06582 195 195 197
   -1.648 -0.773305    2.7242 177 177 179
 -1.20301 -0.691765   2.57957 195 195 195
 -1.23595 -0.502196   2.59752 162 160 161
  -1.0432 -0.653348   2.58834 191 191 193
 -1.29364 -0.589474    2.5906 187 185 186
-1.51309 -1.22075  2.80499 187 187 189
-1.91131 -1.11115  2.19239 200 200 200
-1.11819 -1.13286  2.71305 202 202 204
-0.266128 -0.499408   2.91102 177 175 176
 -0.45686 -0.783287   2.76708 196 196 198
-1.72675 -1.25311  2.95611 175 175 177
-1.15941 -1.50283  2.86017 206 206 208
-0.640299 -0.536976   2.65155 176 174 175
-0.579265 -0.791972   2.70211 193 193 195
 -1.6785 -1.13247  2.85552 182 182 184
 -1.85306 -0.810255   2.31674 202 201 199
