ply
format ascii 1.0 
element vertex 1227
property float x
property float y
property float z
property uchar red
property uchar green
property uchar blue
end_header
 0.930664 -0.504328   3.05658 116 106 96
0.261471 -1.10703  3.42964 111 81 55
 1.40842 -1.04773  3.08297 114 84 58
  1.30597 -0.933551   3.02336 122 88 63
 1.54561 -1.04552  3.10562 99 69 45
 1.20776 -1.18911  3.19286 93 68 48
  1.0592 -1.21945  3.24038 110 83 54
 1.41754 -1.25611  3.21454 112 87 65
 1.37203 -1.25106  3.20709 110 88 65
1.26999 -1.2745   3.219 105 75 51
 1.12036 -2.34599  4.19481 104 88 75
  1.42596 -0.768171   3.00194 112 89 71
  1.44515 -0.949758   3.05263 123 107 94
  1.61547 -0.802302   3.06733 115 99 86
0.636402 -1.19998  3.41364 111 84 63
0.615214 -1.89011  3.90768 56 40 27
0.255015 -1.07745  3.41986 108 80 58
 0.772199 -0.216184   3.22743 81 59 45
 0.697106 -0.549737   3.37249 92 82 73
  1.37631 -0.946342    3.0322 118 92 67
1.49517 -0.9241  3.0534 113 88 68
  1.53729 -0.730465   3.03655 101 75 48
 1.24224 -0.54187   2.9822 81 61 37
 0.264644 -0.858735   3.38057 129 116 107
 1.98631 -0.48508  3.29819 94 71 55
  1.98123 -0.433615    3.2509 101 73 51
 0.407332 -0.800785   3.35187 90 67 49
 1.15676 -2.33692  4.21647 96 75 58
  1.11455 -0.658303   2.96794 107 79 55
0.500485 -1.10615  3.37981 108 82 57
  1.19632 -0.764947   2.96681 100 72 51
0.316443 -1.58334  3.50527 98 72 49
 0.565391 -0.791349   3.33409 111 82 64
 1.12739 -1.20867  3.21067 100 72 48
 0.391714 -0.993203   3.35931 118 91 62
0.480696 -0.57809  3.39362 90 63 44
 0.583871 -0.438503   3.37116 76 53 35
 1.19335 -1.27461  3.21457 103 77 52
 1.37469 -1.16182  3.16706 132 113 99
 0.809657 -0.311091   3.22322 78 59 45
 1.31491 -1.24056   3.2091 104 77 56
0.818724  -1.1981  3.31524 102 74 52
 1.66598 -1.01017  3.14502 103 75 51
 0.65076 -1.05476   3.3299 115 87 65
  1.90718 -0.354972   3.22886 92 65 46
0.814989 -1.07369  3.26782 104 76 52
   1.30399 -0.0736306    3.14284 83 60 42
 0.107645 -0.837664   3.43895 105 77 53
 1.67304 -1.02116   3.1403 110 82 60
  1.90061 -0.350739   3.24777 88 70 48
0.571189  -1.8793  3.89516 66 48 36
 0.955685 -0.921186   3.03722 115 83 58
  1.04569 -0.739615   2.98247 120 97 79
0.302993 -1.10908  3.41885 108 82 55
 1.51567 -0.83145  3.02814 105 77 56
  2.01613 -0.407358   3.25635 106 78 54
  1.20814 -0.814996   2.97075 107 77 51
  1.05804 -0.916008   3.01569 115 85 59
  1.27141 -0.657864   2.97573 105 80 58
0.201126 -1.85004  3.48139 106 80 55
0.846101 -1.33587  3.41977 112 87 67
 1.14003 -0.76808  2.96627 102 74 50
 1.34718 -1.40919  3.28635 120 90 64
  1.66457 -0.879609   3.09707 96 69 50
  0.25488 -0.958363   3.38859 114 86 62
0.227851 -0.53459  3.66083 55 38 28
 0.847914 -0.573227   3.29063 72 51 34
  -1.34082 -0.0763165    7.70402 68 50 38
  1.07051 -0.351476   3.03761 153 148 145
  0.570304 -0.0326185    3.28097 65 43 30
0.297727 -1.36867  3.49661 72 53 38
0.717797  -4.3288  8.91248 72 72 64
0.0769788   -1.1946   3.54098 157 153 150
-0.144996  -1.26401   3.50357 68 50 38
 1.17015 -0.84252  3.04909 119 90 72
 0.424595 -0.804577   3.36889 98 72 55
 0.709645 -0.908309   3.28231 156 151 145
  0.71343 -0.125418   3.19638 118 106 90
 0.639976 -0.515125   3.37875 65 47 35
0.628319 -1.97661  3.87209 153 148 142
 0.907252 -0.495248   3.06517 168 160 157
 0.675688 -0.715275   3.34407 148 143 137
-0.108123  -1.28982   3.42708 168 159 150
-0.13837 -1.41289  3.38153 170 165 159
 0.736042 -0.440584   3.39175 138 133 129
    0.738 -0.439076   3.39572 138 133 129
 0.700674 -0.638869   3.34663 139 134 130
 0.700324 -0.637596   3.34647 139 134 130
  0.73316 -0.376483    3.4004 140 135 132
   0.49043 -0.0125626    3.35883 64 42 28
 1.15845 -0.51911  2.97968 121 107 96
 0.938548 -0.840461    3.0189 150 143 133
  1.33893 -0.383542   3.03395 132 127 123
 0.489883 -0.752705   3.36274 163 154 147
  0.70425 -0.240639   3.38136 70 56 43
0.820435 -1.04208   3.2719 100 75 55
 0.901747 -0.359805   3.11755 141 127 126
 0.900294 -0.563663   3.05766 153 152 147
0.406529 -1.34043  3.54105 141 134 126
  1.09914 -0.578789   2.98313 82 61 40
  0.23029 -0.802296   3.39703 152 143 136
0.752598 -2.13751  3.98289 73 57 41
 0.661848 -0.263341   3.41165 135 134 129
  1.45979 -0.171925   3.15325 132 124 121
 1.24998 -2.43667  4.26798 201 200 198
  1.01888 -0.762013   2.99284 154 144 135
 0.336081 -0.932949   3.36935 155 142 134
 0.776733 -0.330908   3.35509 61 51 41
  1.01448 -0.366026   3.05083 62 43 26
 0.852722 -0.496049    3.1203 74 53 36
 0.875092 -0.838376   3.03872 91 66 46
  0.495262 -0.0113244    3.35539 62 43 29
  1.25117 -0.550983    2.9801 89 62 41
 0.870708 -0.256412   3.18713 61 47 34
0.653168 -1.09986 0.681977 10 9 7
 0.738483 -0.874964   3.21971 98 73 53
0.608503 -1.97813  3.90738 157 152 146
 1.17577 -2.47713  4.23185 206 205 203
   0.52547 -0.0253329    3.35928 147 144 137
  0.45238 -0.702001   3.37331 158 158 150
0.820661 -1.49322   3.6925 199 198 196
 0.766306 -0.403677   3.34565 64 51 43
  0.530124 -0.0893743    3.36821 149 144 140
 1.30048 -1.08252  3.14423 111 85 62
 1.56094 -1.11952   3.1551 161 156 152
0.241437 -1.73202  3.52124 84 68 53
 1.20797 -1.06203  3.15244 157 153 144
 0.325308 -0.696584   3.39365 134 124 115
 0.325072 -0.696467   3.39307 134 124 115
  1.3789 -0.85949  3.00946 94 67 48
 0.706765 -0.146925   3.17719 152 149 144
 2.14498 -4.40967  8.85244 207 206 202
  1.50278 -0.568985   3.04908 81 60 43
  1.07332 -0.442388   3.01229 83 58 38
  1.37254 -0.426412   3.02349 77 58 43
 1.81776 -2.49772   9.2423 184 183 181
  1.18236 -0.369781   3.00105 68 49 34
 0.485128 -0.104326   3.37402 85 67 47
0.940318 -1.32771  3.34613 151 142 133
  1.63831 -0.541039   3.10482 145 138 130
 0.944868 -0.205088   3.16567 51 38 29
  1.43217 -0.826153   3.01491 154 149 143
  1.23359 -0.401127   2.99482 66 47 32
  1.16665 -0.645106   2.96778 152 142 132
 0.553571 -0.144318   3.37837 160 151 144
0.674017 -2.06817  3.94299 91 72 57
-0.0847383   -1.32496    3.37771 82 59 45
 2.23986 -2.58629  9.14275 101 100 96
 0.649956 -0.659428   3.34953 74 60 51
0.436193 -1.38438  3.56254 77 63 54
0.692672 -0.86208  3.29227 150 141 136
0.242005 -1.02439   3.4144 130 118 106
  1.10246 -0.349224   3.03017 145 140 134
 0.742884 -0.997904   3.28006 168 161 155
0.633504 -1.31483  3.48817 147 129 115
  1.14737 -0.501647   2.98724 129 117 103
-0.187081  -1.44953   3.40371 164 152 138
  1.58404 -0.596952   3.07551 133 123 114
0.357156  -1.3568  3.51135 61 51 42
 0.528329 -0.587746   3.36945 115 103 89
 1.40473 -1.29887  3.23213 150 134 118
0.324118 -1.04662  3.39937 152 139 131
   1.6444 -0.606425   3.11135 87 66 49
  1.63068 -0.833733   3.08325 126 114 100
  1.45977 -0.488652   3.04198 81 60 43
0.926105 -1.06446  3.23283 106 88 74
 1.36463 -1.56437  3.54606 213 212 208
   1.10392 -0.0760477    3.15343 78 57 40
  0.379561 -0.0777584     3.3613 118 104 93
  1.75488 -0.192081   3.27163 123 114 107
 0.934666 -0.534667   3.05355 93 77 64
-0.137984  -1.45154   3.37306 94 75 60
   1.0189 -0.555619   3.00346 83 61 47
 0.914734 -0.782578   3.02092 104 76 54
  1.31167 -0.986656   3.06242 130 113 93
0.166536 -1.44964  3.37198 83 58 38
 1.26521 -1.08006  3.14736 122 95 76
 1.19333 -1.00843  3.08674 113 82 62
 1.48641 -1.40234  3.31211 154 142 130
  1.36381 -0.175053   3.12796 49 36 28
  1.62084 -0.575261    3.0944 78 64 51
 0.526201 -0.639253   3.36969 83 60 44
0.807786 -1.00629  3.26026 99 81 69
  1.48902 -0.685725   3.01166 77 51 34
  1.32034 -0.565536   2.98602 119 103 90
0.663811 -0.19624  3.29587 110 98 86
0.725293 -1.30273  3.47267 107 81 58
  1.61131 -0.474316   3.10258 98 73 51
 1.46198 -1.31957  3.24971 104 74 50
  1.39269 -0.191168   3.11843 46 33 27
  1.14522 -0.237966   3.04148 112 99 91
0.796173 -1.42364  3.61477 144 137 129
0.882393 -1.00024  3.18751 115 90 70
 1.66674 -0.56795  3.11493 136 126 116
0.425676 -1.69132  3.64851 127 111 96
 0.280751 -0.692196   3.41359 77 54 38
0.526584        0  3.36232 52 39 31
  1.08507 -0.381214    3.0286 80 66 55
-0.11063 -1.43994  3.35472 161 147 136
0.650624 -1.13895  3.36868 135 122 103
  1.60604 -0.993085   3.10664 149 132 116
 0.676725 -0.127625   3.18057 140 126 113
  1.64897 -0.393245   3.12536 116 100 85
 1.39724 -1.12051  3.13443 108 81 51
 0.32884 -1.84753  3.57135 122 110 98
 0.794158 -0.644517   3.10056 102 83 68
 0.214214 -0.909759   3.39131 92 67 45
0.193551 -1.78913  3.47893 113 96 76
 0.740668 -0.948223   3.27576 92 82 72
0.322121 -0.74292  3.37545 88 69 54
0.223345 -1.31904  3.48587 117 109 106
0.429171  -0.7167  3.36699 86 68 54
 0.771577 -0.949769   3.24232 104 92 70
 1.57192 -1.18045  3.18076 119 91 67
-0.155876  -1.38971   3.39264 100 73 54
0.408661 -1.80945  3.67283 127 117 105
  0.92832 -0.965948   3.07681 144 127 111
1.35878 -1.0209 3.07537 101 76 56
  1.21233 -0.620373   2.97554 111 83 61
 0.453579 -0.268864   3.44654 114 96 82
0.304259 -0.62378  3.44373 106 93 77
 0.135711 -0.935055   3.42478 103 75 53
0.35035 -1.7361  3.5956 116 108 97
0.274832 -1.00777  3.39695 147 133 120
1.39074 -0.2939 3.05834 91 78 69
 0.527321 -0.226205   3.41799 108 92 77
0.560509  -1.2304  3.43658 103 77 54
 0.220483 -0.841099   3.39339 101 75 60
 0.975675 -0.469902   3.03582 96 72 48
 0.847726 -0.663805   3.05167 112 90 76
0.848081 -0.66309  3.05367 112 90 76
0.0996497 -0.956971   3.45495 149 136 127
  1.2831 -1.34498  3.24998 130 113 97
0.956071 -0.29609  3.10379 71 54 36
0.656042 -1.08865  3.34157 102 78 54
   0.8966 -0.404176   3.10301 66 53 37
  1.30528 -0.599841   2.97326 123 107 94
0.261992 -1.64416  3.52433 109 86 68
  1.14643 -0.686647   2.96579 99 77 56
  1.87707 -0.221099   3.23036 88 66 45
0.950207 -2.03647  3.99436 140 114 87
 0.940115 -0.342862   3.09767 74 57 47
0.531269 -1.79966   3.8797 130 121 112
0.397365 -1.86039  3.65468 83 62 45
-0.0648349   -1.45426    3.31454 91 72 55
0.794292 -2.01531  3.94619 133 109 83
  0.550416 -0.0966471    3.35818 90 76 65
  1.68677 -0.526676   3.12485 96 77 60
1.28681 -1.3843  3.2777 131 114 98
 0.905811 -0.261461   3.15222 112 102 90
 0.905822 -0.261282   3.15273 112 102 90
 0.307947 -0.723657   3.38916 85 62 44
  1.54755 -0.365277   3.08663 112 100 86
 0.340268 -0.872328   3.36293 109 81 57
  1.07016 -0.427902   3.00826 76 55 38
0.0552431 -0.877497   3.47978 133 111 90
 0.475406 -0.845999   3.35734 96 78 66
 0.33609 -1.67532  3.56181 131 115 102
 0.599396 -0.821663   3.32861 90 71 57
0.0926635 -0.900923   3.45198 102 74 50
-0.0399835   -1.45118    3.30256 142 112 86
0.536514 -1.84584  3.87523 60 47 38
 0.392972 -0.914816   3.35227 135 121 110
0.733168 -1.24302  3.40839 131 114 98
 0.693808 -0.119977   3.16595 102 74 52
  1.0544 -2.33527  4.14973 104 94 82
 1.16883 -2.21193  4.17837 118 99 82
0.150413 -1.08744   3.4571 113 87 64
  1.24241 -0.354148   3.01483 109 93 80
 1.16558 -1.20173  3.19836 130 108 87
 1.22605 -1.29505  3.22756 101 71 45
 1.16127 -2.37835  4.21419 119 102 86
0.394105  -1.8332  3.66375 148 131 121
  0.4371 -1.73274  3.70881 136 126 117
0.438123 -1.73311  3.71367 136 126 117
  0.608924 -0.0822307    3.21737 109 81 57
0.426688 -1.84041  3.70659 86 67 53
0.158894 -1.77503  3.46733 93 68 46
0.159533 -1.77529  3.47511 93 68 46
   1.19513 -0.0361777    3.14781 90 74 61
0.617985  -1.3548  3.52135 95 70 48
   0.2043 -0.996591   3.41366 111 80 59
0.221021 -1.47497  3.43097 107 88 73
  0.950294 -0.0401839    3.14028 87 69 55
 0.386704 -0.966484   3.36133 129 103 76
 0.141222 -0.983068   3.43007 99 78 61
   1.3977 -0.475367   3.01592 104 88 75
0.423655 -1.13743  3.40417 103 84 67
0.0784723 -0.958203   3.46719 100 73 52
0.177234 -1.36722  3.40007 58 46 34
 1.67619 -1.12469  3.19631 96 69 48
  0.50144 -0.498646   3.39304 79 52 31
 0.501343 -0.498561   3.39095 79 52 31
0.299182 -1.79663   3.5508 138 128 119
0.690332 -0.15495   3.1928 103 78 56
   1.02398 -0.0381775    3.14716 91 73 61
  1.09673 -0.108951   3.16045 76 60 47
 0.875679 -0.927911   3.07884 141 110 82
   1.6313 -0.250737   3.16979 86 72 59
0.958764 -1.09152  3.23316 92 76 63
 1.62735 -1.07448  3.15947 112 85 66
  1.54363 -0.775107   3.03825 126 110 97
 0.533026 -0.512939   3.37654 133 107 84
 0.971489 -0.334096   3.07873 97 83 72
  0.39143 -0.938057   3.35558 93 75 55
 0.224953 -0.134147   3.41256 101 70 42
  1.41952 -0.870288   3.02901 108 89 74
 0.109232 -0.872211   3.43575 140 113 86
 0.487637 -0.229302   3.42348 101 67 55
   1.6706 -0.443732   3.13294 116 98 84
0.782228 -1.36854  3.49929 113 89 65
   1.12966 -0.0336342     3.1424 87 74 58
 0.398405 -0.549874    3.4591 95 81 70
-0.670569  -3.99262   8.95865 214 213 211
 0.779504 -0.053413   3.12852 69 46 28
  0.36641 -0.235168   3.50955 87 70 54
  0.417159 -0.0704533    3.36231 78 52 37
 1.30507 -0.66266  2.97808 114 98 82
 0.876726 -0.371646   3.13194 80 57 39
  1.24222 -0.870898   2.98841 99 69 45
0.0873757   -1.3859   3.31323 106 79 58
 0.754404 -0.101426   3.13877 126 96 72
-0.0346693   -1.37195    3.30547 82 59 41
 0.392553 -0.110268   3.36925 82 57 37
 0.232384 -0.727165   3.41916 101 73 52
  1.48084 -0.906702   3.04281 105 84 67
 1.28713 -0.70258  2.97643 99 81 59
  1.28689 -0.702415   2.97536 99 81 59
2.77855  -2.322 8.98956 210 209 207
0.217054 -4.29755  9.66399 192 191 189
 0.196324 -0.601832   3.50338 98 80 66
  0.20456 -0.104415   3.97655 115 96 79
 2.29661 -2.32008  9.11316 206 205 203
  1.19421 -0.576662   2.97277 95 72 54
 0.328246 -0.199594    3.4549 73 47 30
0.832979 -1.02036  3.25471 141 132 123
 2.97373 -1.98018  5.85362 206 205 203
 0.921032 -0.702853   3.00904 95 73 50
1.50486 -1.1892 3.17849 120 95 75
 0.291142 -0.760301   3.38478 123 93 69
-0.258111  -4.28485    9.7702 205 204 202
0.765039 -1.26945  3.41634 111 89 66
  1.26903 -0.467449   2.99114 94 67 48
 3.38091 -2.43234  8.83508 203 203 203
 2.06454 -2.32523  9.22459 192 191 189
 0.352425 -0.681582   3.39182 82 63 48
0.519128 -4.26976  8.60663 188 187 185
 2.42144 -2.42713  9.10194 198 197 195
 1.10161 -0.29094  3.02859 116 86 62
  0.68003 -0.188922   3.25153 86 67 50
2.42167 -2.5322 9.10015 198 197 195
  1.67051 -0.603702   3.11259 79 61 47
 2.29987 -2.42644  9.11565 196 195 193
0.625983 -4.37667  8.61334 185 184 182
  1.50165 -0.416798   3.06422 105 79 64
 3.52272 -2.33248  8.85185 191 191 191
  1.30821 -0.368846   3.01491 92 73 58
  1.45332 -0.570579    3.0096 79 62 46
  0.450422 -0.0744126    3.36619 93 74 59
 3.85094 -3.36951  8.68753 205 204 202
0.962217 -1.03516  3.19994 107 89 75
 2.89867 -4.31578  8.96765 210 209 207
  1.12854 -0.992076   3.05343 127 96 68
0.518734 -4.37606  8.63712 180 179 177
0.664937 -1.25623  3.43935 129 108 91
 0.802451 -0.964987    3.2294 102 88 75
 2.77134 -4.51805  8.99182 211 211 209
0.104289 -1.33628  3.33952 61 45 32
  0.45288 -0.167528   3.40108 101 76 56
  3.0115 -4.20246  8.91647 209 208 206
  1.1823 -1.21408  3.19985 87 64 46
 3.26219 -2.64051  8.87114 205 204 202
 3.26111 -2.42681  8.86437 205 204 202
  0.29583 -0.195503   3.46352 106 82 56
 0.891827 -0.539516   3.06723 99 86 70
 3.74417 -2.85152  8.75044 200 199 197
 0.463027 -0.533252   3.41083 109 93 78
0.0701364  -1.16878   3.54275 139 133 133
  1.26362 -0.326034   3.01987 81 64 48
  3.7261 -2.73999  8.69987 204 203 201
0.0927156  -1.57541    3.3682 111 88 70
   0.29862 -0.0497275    3.36571 99 75 51
 3.25295 -3.99499   8.8567 206 205 203
  0.762861 -0.0231507    3.13236 98 73 53
0.0959131 -0.986663   3.45623 104 77 56
 3.13986 -2.74248  8.88997 204 203 201
-0.0429621   -1.48415    3.30728 101 71 45
 0.832574 -0.415326   3.17723 75 56 41
2.89074 -4.1972 8.93751 213 212 210
-0.608868   -3.6742   8.08777 207 206 204
-0.856094  -4.22714   9.96384 211 210 208
 2.65272 -4.41066  9.02312 211 210 208
  3.0275 -4.11632  8.96453 208 207 205
  1.7054 -1.08495  3.18079 101 74 53
 3.02475 -4.00683  8.95153 210 209 207
  1.72996 -0.517503   3.14578 114 98 85
0.0468712 -0.901744   3.48554 91 65 42
 0.659836 -0.129343   3.19688 95 70 48
 0.95166 -1.40208  3.42706 127 107 83
-0.192265  -1.48034   3.40597 99 74 54
-0.00415278    -1.37149     3.29803 111 81 57
 0.969237 -0.548287    3.0257 84 65 51
 2.88719 -4.50862  8.94411 210 210 208
 1.17712 -1.04682  3.14145 117 104 88
 3.12939 -4.30218  8.87078 198 197 195
 2.96495 -2.04793   5.8366 208 207 205
 2.66457 -4.52915  9.05609 213 212 210
0.723636 -1.99396  3.92218 143 120 89
-0.380756  -4.24597   9.88025 214 213 211
 0.882234 -0.475004   3.08932 90 68 54
  0.336208 -0.0575408    3.35743 84 59 39
0.715727 -1.18196  3.36968 105 80 58
 0.276382 -0.635723   3.44564 69 51 31
  0.728832 -0.0240502     3.1307 92 67 45
0.446757 -1.43832  3.55503 109 95 84
 0.934512 -0.637513   3.02762 95 69 52
0.042271 -1.18453  3.54867 86 77 68
 0.896481 -0.306304   3.14102 83 61 47
   1.01891 -0.0691593    3.14542 69 48 31
0.752895 -2.04172  3.96768 153 144 139
 0.844059 -0.688354   3.04548 78 50 38
 0.327285 -0.652639   3.41215 81 63 49
 0.518928 -0.406962   3.39474 71 53 39
 0.850757 -0.993478   3.21725 109 96 80
0.668432 -1.31019  3.47951 129 113 98
 0.731349 -0.812192   3.17282 83 58 38
0.648963 -1.34434  3.50956 107 79 55
  1.19947 -0.253338   3.03597 89 69 44
 0.173044 -0.998474   3.42584 102 82 58
0.345968  -1.0259  3.39241 106 87 70
1.34308 -1.3079 3.23336 123 95 81
0.969361  -1.3837  3.38397 133 107 82
0.682913 -0.16899   3.2135 126 96 70
 0.433632 -0.597867   3.41514 86 67 52
 2.00111 -2.42817  9.22328 190 189 187
  1.79514 -0.974372   3.21176 140 114 91
0.351562 -1.83975  3.60383 95 78 58
0.742592 -2.02496   3.9644 113 96 86
 0.47581 -1.29186  3.50121 125 106 92
   0.41279 -0.0318372    3.35891 97 72 50
 0.924757 -0.468174   3.06724 110 88 64
0.699141  -0.4822  3.38736 78 69 64
0.315458 -1.14136  3.43269 130 105 83
0.328887  -1.6436  3.56809 106 78 56
 0.969121 -0.413497   3.05798 102 76 53
  1.6891 -2.30551  8.30513 192 191 189
  1.10475 -0.328054   3.02692 106 86 77
1.51785 -2.3217 9.33958 191 190 188
  1.54028 -0.401426   3.08072 125 108 92
0.173972 -1.07101  3.44422 92 69 51
 0.184127 -0.680702   3.46517 79 58 39
 1.52254 -2.42578  9.34603 185 184 182
-0.0601711   -1.35505    3.33277 110 82 58
 1.85232 -1.42335  3.56832 204 203 201
  0.342467 -0.0219425    3.35751 96 74 53
 1.51928 -1.21367  3.19554 152 133 118
  1.17571 -0.432498   2.99811 102 74 52
 1.55189 -1.14868  3.16113 107 86 67
0.348749 -0.71547   3.3764 96 77 62
 1.75354 -1.46709  3.60252 205 204 202
  0.683178 -0.0922556    3.16217 130 100 74
  1.17807 -0.622708   2.96708 110 98 84
 0.298005 -0.897306    3.3763 97 74 56
 1.33792 -0.10589  3.14091 90 77 68
  0.639322 -0.0971168    3.20216 93 65 43
 0.134689 -0.689871   3.47942 99 78 61
 2.24272 -2.43166   9.1802 198 197 195
 0.940434 -0.926482   3.04596 129 97 72
0.339388 -1.23833  3.48932 120 103 87
0.854915 -1.15132  3.28248 99 73 50
 2.36551 -2.53667  9.13353 191 190 188
 0.465586 -0.962236   3.36435 114 92 79
 0.893305 -0.788355   3.02997 104 86 74
-0.0114742   -1.11046    3.59637 115 99 83
0.622096 -1.21537  3.42321 106 79 60
   1.17313 -0.0878279    3.15227 78 62 49
 -1.70417 -0.500861    19.001 183 182 180
  1.21716 -0.606756    2.9724 101 73 51
  0.341547 -0.0770836    3.36207 82 57 37
-0.0254784   -1.61316    3.33169 144 114 88
 2.99278 -3.14144  11.5596 195 194 192
 0.630076 -0.254042   3.41312 97 88 83
-0.045621  -1.33731   3.32921 102 75 56
  1.2224 -1.39303  3.29479 112 81 53
0.849015 -1.06373  3.26201 99 78 61
 1.25783 -1.36825  3.27225 114 88 65
   1.5862 -0.696203   3.04626 107 88 73
 1.58865 -0.69516  3.04821 107 88 73
0.256696 -1.84266   3.5172 118 86 61
0.905418 -1.10357  3.25073 111 92 77
  1.37292 -0.497569   3.00486 81 58 42
  0.40754 -0.781491   3.35587 71 50 33
0.652728 -1.99757  1.88146 220 219 217
  1.8664 -4.71267  9.20541 212 211 209
  1.29906 -0.306335   3.02405 99 72 51
 1.48948 -0.15288   3.1605 85 71 60
 0.600799 -0.113225   3.27821 89 64 44
 0.461372 -0.303519   3.44947 82 55 34
  0.665406 -0.0933385    3.18199 95 69 44
  1.65891 -0.361343    3.1374 70 51 34
0.579516 -1.95144  3.89143 82 61 42
   1.5977 -0.817571   3.05901 100 79 62
 1.03207 -2.59694  3.99186 206 205 203
 0.573638 -0.666307   3.35289 85 68 58
  1.55575 -0.788571   3.03526 91 68 50
-0.0874398   -1.56806    3.32449 122 92 66
-0.101128  -1.26835   3.43206 94 81 65
  0.464802 -0.0284775    3.35954 89 64 44
0.708896 -1.36078  3.54009 106 81 59
 0.401711 -0.626654   3.41817 112 96 83
  1.0955 -1.38511  3.31326 130 104 81
0.518564 -1.88886  3.86087 95 78 68
 0.626908 -0.425706   3.38782 55 38 28
-0.0351469   -1.54603    3.31502 138 114 86
  1.33876 -0.622944   2.97542 124 99 79
0.0296179  -1.09772   3.54624 100 83 67
0.233968 -1.05762  3.42021 104 76 54
  1.62054 -0.314974   3.13904 89 71 57
-0.0793228   -1.06132    3.67247 102 80 59
 0.581289 -0.839175   3.33232 101 82 67
  1.01389 -0.669907   2.98351 101 80 61
  1.56138 -0.743261     3.039 118 95 81
  1.69942 -0.846246   3.10877 111 85 62
 0.962976 -0.368838   3.07206 62 46 30
   1.9622 -0.517298   3.32233 136 132 123
  1.45832 -0.652067   2.99821 106 85 68
  1.42151 -0.540901   3.01028 94 77 61
 1.57875 -1.27752  3.23844 102 78 52
-0.0421653   -1.42232    3.30399 101 73 49
0.723306  -1.1078  3.29232 114 83 65
0.508567 -1.07151  3.37902 103 78 58
1.27776 -1.0478 3.11341 107 86 67
  0.642272 -0.0760767    3.19002 113 86 67
  1.4153 -0.31446  3.05606 75 54 37
 0.274304 -0.656833   3.43965 106 83 67
8.59624 -3.5676 11.7077 220 220 218
  1.32769 -0.616767    2.9821 93 72 55
 0.371448 -0.209249   3.45755 92 75 59
3.01265 -4.1551 8.92053 209 208 206
  1.3549 -1.09576  3.11538 109 79 51
 0.861446 -0.631811   3.06034 82 59 43
 1.06574 -1.37731  3.32687 111 83 59
 1.48682 -0.62534  3.01042 105 84 67
 0.313621 -0.771865   3.37511 93 72 55
 0.939243 -0.247234   3.14001 89 62 43
0.712323 -1.00912  3.29035 107 88 73
  0.813236 -0.0557934    3.13186 90 69 52
  0.979245 -0.0663773    3.14158 72 50 36
 1.80924 -4.87086  9.22528 209 208 206
 0.217372 -0.872027   3.39362 105 76 58
 1.60229 -0.89104  3.07789 89 62 43
-0.0350467   -1.52499    3.31049 99 71 47
 1.61615 -1.22605  3.21605 131 106 86
0.835827  -1.2518   3.3443 115 88 61
 0.503907 -0.358031   3.41633 100 73 52
  0.702954 -0.0222934    3.14662 95 68 47
 1.35029 -1.14768  3.16593 119 97 83
 0.784107 -0.943985   3.20683 128 106 83
0.0274672  -1.07237   3.53769 85 62 44
 0.306332 -0.097849   3.36949 96 66 42
0.994659  -1.2964  3.29715 116 88 66
 0.996728 -0.334162   3.06739 68 50 36
 1.59161 -1.26322  3.23309 105 83 60
 0.372557 -0.046089   3.35689 80 55 35
0.917731 -1.21757   3.2967 105 75 51
  0.18695 -0.617863   3.49507 65 44 27
 0.357518 -0.527604   3.49976 71 57 46
0.00545294  -0.838488     3.5276 113 85 64
  1.59523 -0.939292   3.09671 95 70 48
-0.0975227    -1.0376    3.68691 120 94 71
  1.64594 -0.869673   3.08364 91 70 51
 1.24275 -0.68139  2.96926 107 85 64
 0.997555 -0.584788   3.00286 118 91 64
 0.967717 -0.999523   3.09945 113 82 54
 0.976528 -0.971353   3.06733 127 96 68
0.791336 -1.23477  3.36094 99 78 59
  1.15156 -0.932519   3.01323 120 90 62
0.836936 -1.10514  3.27526 104 77 56
-0.0104573   -1.42207    3.29323 116 88 64
  0.46505 -0.158328   3.39551 92 70 56
 0.688471 -0.405527   3.40076 86 75 69
  1.29525 -0.428394   3.00712 93 71 57
0.606501 -1.95477  3.90412 92 76 61
0.994405 -0.44009  3.02453 105 79 56
 0.126364 -0.750597    3.4624 107 80 59
0.656187 -1.87016  3.94391 85 69 56
  0.861198 -0.0288038    3.14158 86 65 48
  1.73288 -0.203936   3.25732 60 50 41
 1.02314 -0.63534  2.97956 125 97 73
 0.70821 -1.10089  3.32352 122 100 79
-0.00320436    -1.02815     3.55107 114 89 69
 0.435078 -0.260223   3.46514 94 69 49
0.106287 -1.13361  3.50786 79 62 46
  1.03505 -0.801528   2.99733 105 82 64
  1.58842 -0.978821   3.09484 102 80 59
1.08178 -1.4252  3.3707 124 94 68
0.0570312 -0.996461   3.48425 112 84 62
 0.160378 -0.664972   3.47859 96 75 58
  1.36132 -0.571585   2.98961 104 81 63
-0.184536  -1.46883   3.39787 101 80 61
  1.34391 -0.573616   2.98673 87 68 53
 0.409754 -0.270691   3.49928 91 73 59
0.889189 -0.78645  3.02899 114 100 87
 0.227515 -0.661553   3.44087 93 68 48
0.289848 -1.17789  3.45339 93 65 43
 1.59096 -1.05319  3.12432 135 111 87
  0.54604 -0.526941   3.37171 86 60 37
   1.3509 -0.970092   3.05334 112 87 67
 0.926167 -0.353803   3.10216 113 94 79
  0.317266 -0.0744004    3.36422 112 81 60
   1.16672 -0.0154872    3.15431 65 46 32
 0.870854 -0.416822   3.11592 101 73 51
 0.446708 -0.798489   3.36761 76 58 44
 0.683334 -0.885584   3.29557 109 97 83
  0.442676 -0.0997067    3.36791 79 54 34
0.00640039  -0.893143    3.51902 108 80 58
 0.837586 -0.808801   3.04818 121 91 67
  0.323418 -0.0348464    3.35784 103 78 58
-0.000504137     -1.07538      3.57294 106 87 70
0.684635 -0.62879  3.35557 126 117 110
  0.625591 -0.0673617    3.19789 82 54 30
0.578433 -1.84559  3.90468 84 68 55
0.924799 -1.99122  3.97837 86 72 61
0.44354 -0.3049  3.4669 104 78 61
0.0676429 -0.787303   3.47974 80 55 33
0.0673782 -0.786271    3.4843 80 55 33
   1.2251 -0.354545   3.00792 101 85 72
0.829381 -1.28461  3.38151 97 78 61
0.779786 -2.08491   4.0037 148 139 134
-0.202059  -1.44728   3.40903 111 85 60
 0.779215 -0.927346   3.17269 99 74 52
  1.47902 -0.849762   3.03126 99 81 61
  1.22096 -0.470548    2.9851 91 68 50
  1.02058 -0.823312    3.0067 98 75 57
1.00022 -1.1275 3.22605 87 68 51
 1.03049 -0.29704  3.06187 103 84 69
  1.01952 -0.288325   3.06763 74 55 41
 1.02091 -0.28807  3.07246 74 55 41
  1.19366 -0.642324   2.96831 110 90 79
   1.3623 -0.521994   2.99817 104 86 66
0.127123 -1.81283  3.46175 121 89 66
 0.470793 -0.123306   3.38259 76 54 33
0.780744 -0.77517  3.07331 103 75 51
0.638261 -1.88095  3.92351 52 36 23
 1.07355 -1.27139  3.24895 104 79 57
 1.12514 -2.10251  4.08777 109 84 62
 1.04938 -1.35693  3.31585 99 73 50
 0.626797 -0.179647   3.32602 114 88 65
 0.738425 -0.848679   3.17119 113 86 65
  1.15979 -0.479437    2.9859 99 76 58
0.763785 -0.90355  3.18066 112 90 69
 0.859341 -0.446858     3.119 80 58 44
 0.415783 -0.767677   3.34887 101 82 68
0.805221 -1.95312  3.95939 48 33 26
  1.78672 -0.218271   3.25804 87 77 67
 0.477498 -0.564637   3.38741 103 74 56
 0.279136 -0.171879   3.40804 105 74 53
 0.670178 -0.396304   3.40435 50 39 33
   1.27982 -0.0254743     3.1499 75 57 45
 0.751076 -0.387516   3.39149 104 95 90
 0.894529 -0.663033   3.03361 90 68 54
 0.54534 -1.36997  3.55805 124 102 81
0.984633 -1.35003  3.34242 126 99 72
  1.28787 -0.286282   3.02333 90 64 47
 0.435492 -0.577272   3.42149 105 82 66
  1.57827 -0.298706   3.12981 67 51 38
0.867698 -1.25766  3.33039 101 71 47
 1.14817 -1.01039  3.07339 131 100 72
0.409662 -1.46889  3.52659 94 72 58
 0.472411 -0.545579   3.40081 78 55 39
 0.151292 -0.958064   3.41987 101 73 52
  1.97105 -0.528561   3.33427 109 105 96
  0.996525 -0.0228965    3.14124 67 49 29
  1.36754 -0.585348   2.99092 89 68 51
 1.30508 -0.54046  2.97864 93 72 55
  1.43819 -0.115323   3.11748 91 66 44
  0.817794 -0.0786552    3.13186 72 49 31
 0.63696 -1.86611  3.93204 79 63 50
   1.533 -0.54638  3.05719 90 69 52
0.0306018  -1.01985    3.5186 97 69 47
  1.64361 -0.582705    3.1018 78 66 54
 0.886438 -0.447837   3.09468 91 75 60
0.15753 -1.1336 3.47479 84 59 39
   0.9441 -0.691072   3.00731 117 89 67
 1.30709 -1.37132  3.25807 110 86 62
 0.842148 -0.042563   3.12974 66 45 28
-0.0579028  -0.929275    3.60839 94 71 53
 1.57815 -0.99927  3.09778 101 80 59
0.234527 -1.39638  3.43581 69 53 40
   1.4882 -0.734721   3.00989 114 88 65
 0.696281 -0.580209    3.3641 119 110 103
   1.23048 -0.0173749    3.15158 60 41 26
0.954239 -2.06244   4.0147 109 88 67
  1.19562 -0.922513   3.00761 117 87 61
   1.3014 -0.499041   2.99171 73 54 39
0.957242 -2.26912  4.08568 99 85 76
 0.420923 -0.994272   3.35534 89 66 50
0.00799958  -0.868348    3.51367 95 67 46
  0.75058 -0.253452   3.33567 87 77 68
0.250647 -1.50201  3.45262 94 72 51
-0.177906  -1.37021   3.42599 121 91 67
  1.72129 -0.542143    3.1386 84 65 50
-0.042587  -1.50803   3.30923 117 89 65
 0.85795 -2.05649  3.99249 128 114 101
 0.683929 -0.202404    3.2528 84 67 51
 0.522177 -0.259219   3.41884 95 76 61
 1.73392 -1.03037  3.18777 103 76 55
 0.598526 -0.427197   3.38099 84 62 48
0.392028 -1.62094  3.57395 117 89 67
1.12156 -2.3999 4.18333 101 85 69
0.826263 -2.10499  4.02732 115 107 96
 0.746738 -0.827263   3.13899 112 82 58
  1.68551 -0.557529   3.11898 101 84 68
  1.33764 -0.695631   2.98261 101 79 58
  1.44886 -0.451194   3.04056 89 68 51
0.960984 -1.42474  3.45582 103 78 56
-0.0431897   -1.60922    3.32936 115 85 59
0.371611 -1.59177  3.54516 114 86 65
 1.10377 -1.34748  3.29327 105 79 56
0.390244 -1.05686  3.38677 127 97 71
0.114414 -1.64783  3.40919 80 57 39
  1.70138 -0.488438    3.1374 113 87 72
  1.69289 -0.463978   3.12888 91 65 48
-0.110689  -1.54681   3.32953 143 113 87
0.0913341 -0.828543   3.45173 113 85 61
 0.673444 -0.213669   3.32288 80 61 44
  0.644982 -0.0583458    3.18111 89 61 40
0.0842312  -1.87497   3.49373 124 94 66
 0.689504 -0.975199    3.2934 116 88 66
0.377897 -1.82499  3.64692 98 81 63
 0.391591 -0.165456   3.40245 88 67 50
  1.05605 -0.868463   2.99666 109 82 61
 0.478342 -0.267977   3.43762 87 66 45
  0.776298 -0.0739519    3.13332 98 73 53
0.998928 -1.25772  3.27498 113 87 64
0.427627 -1.18189  3.43188 125 103 82
 0.424359 -0.578048   3.42538 82 63 49
0.768914  -1.1743  3.33515 130 102 78
-0.0282516   -1.03747    3.58417 87 62 42
  0.454474 -0.0525133    3.35966 70 47 29
 1.03816 -0.47645  3.01236 94 71 53
0.456208 -1.04081  3.37647 106 81 59
  1.29588 -0.826508     2.986 100 72 50
 0.727428 -0.791958    3.1695 104 79 59
     1.1407 -0.00728351     3.15674 70 49 32
 0.502872 -0.461702   3.39545 111 83 61
0.139064 -1.20963  3.52037 104 100 91
0.428052 -1.49348  3.54464 95 72 54
 0.458824 -0.579156   3.40092 111 83 59
 0.841106 -0.759681   3.03684 120 94 69
 0.692703 -0.720916   3.34153 107 100 92
-0.00355663    -1.18974     3.57594 95 91 80
    1.0544 -0.0194957    3.15096 72 49 31
 0.646068 -0.947951    3.3082 79 58 41
  1.36958 -0.843663   2.99837 116 88 74
  1.46901 -0.739821   3.00418 84 58 35
 0.320311 -0.878576   3.36632 107 81 58
0.0486733  -1.63048   3.35331 108 80 56
 0.414453 -0.262199   3.49118 89 70 55
 1.62543 -0.98319  3.10089 106 81 61
0.00306935   -1.70812    3.37263 114 83 55
 0.839321 -0.710647   3.04682 102 75 54
 1.34613 -1.42672  3.30849 125 95 69
  1.68264 -0.417082   3.13482 86 67 52
  0.902905 -0.0116606    3.13349 77 56 39
  0.806296 -0.0314245    3.12832 88 67 50
0.600566 -1.01644  3.33426 102 77 57
 1.10123 -2.26362   4.1804 117 101 86
 1.09755 -2.26092  4.16816 117 101 86
0.893439  -1.2649  3.32052 121 91 67
0.919468 -2.05392  3.99349 108 90 70
  1.33715 -0.519207   2.99277 85 63 49
  0.399342 -0.0562594    3.35759 84 59 39
0.523486 -1.21549  3.43935 118 88 60
   0.866053 -0.00901402     3.13607 84 63 46
 0.732778 -0.781875   3.15548 85 60 40
 0.365992 -0.715678   3.36989 120 95 75
  1.04114 -0.596074   2.98469 112 85 66
 0.409288 -0.699445   3.36943 111 89 68
  1.45612 -0.606276   2.99554 94 73 56
  0.784348 -0.0875873    3.13487 88 61 42
  1.00445 -0.827827   3.00208 123 98 78
 1.29155 -0.35066  3.02376 99 82 66
  0.84628 -0.645577   3.05838 82 59 43
  1.47274 -0.624397   3.01425 78 57 40
  2.03482 -0.437501   3.24667 102 74 52
-0.0762515   -1.60761    3.32567 121 91 63
 0.758248 -0.359769    3.3754 103 92 86
0.385017 -1.84667  3.63861 92 78 67
  1.35237 -0.350895   3.03154 112 100 84
  1.96568 -0.505034   3.31853 104 95 86
  1.39121 -0.684658   2.97438 114 86 64
 0.770042 -0.883299   3.13861 116 88 64
 1.32949 -1.14957  3.18304 129 115 104
 1.03746 -0.27036  3.07123 83 62 43
 0.751489 -0.896589   3.20057 96 70 53
 0.58141 -2.05785  3.91473 111 81 57
  0.330746 -0.0940317     3.3693 108 78 54
  0.939052 -0.0669038    3.14101 71 45 30
 1.42329 -1.18342  3.17206 109 84 64
  0.95673 -0.329055   3.08755 68 54 41
-0.00505642   -0.888394     3.52904 114 86 64
-0.0489572   -1.57991    3.31849 117 87 61
 0.131478 -0.703334    3.4784 71 50 33
   0.96161 -0.0204649    3.13852 69 48 31
 0.32396 -1.13319  3.43228 101 79 56
  1.00524 -0.260674   3.08846 59 41 27
0.733086 -2.04656  3.96802 132 124 122
  0.55601 -0.463245   3.37578 89 61 40
 0.60724 -1.37852  3.55659 99 74 52
   1.06878 -0.0325168    3.15032 81 65 52
  1.65317 -0.460304   3.12582 86 65 48
 0.520909 -0.161533   3.39777 110 84 67
-0.000392046     -1.04557      3.55769 84 65 48
 0.641439 -0.834565   3.31748 119 115 103
  1.01866 -0.586708   2.99384 115 86 68
   0.9384 -0.298097   3.11824 83 60 46
 0.624465 -0.532688   3.36978 80 57 43
-0.881359 0.0558174   3.93626 200 192 190
0.250542 -1.19436  3.47836 99 80 65
  1.57405 -0.752372   3.04384 90 68 54
0.136641 -1.04578   3.4586 94 73 46
  1.69889 -0.575231   3.11852 104 85 68
   1.03447 -0.0165394    3.15165 69 48 29
0.862254 -2.11188  4.04212 108 100 89
 0.169202 -0.930449   3.40034 117 87 63
0.594203 -1.03559  3.34822 126 96 72
 1.33277 -1.33639  3.24778 100 73 52
  1.02863 -0.975866   3.04688 123 92 64
  0.935469 -0.0195531    3.13995 66 45 28
0.912015  -2.0708  4.00679 122 104 90
  1.25624 -0.438704   2.99179 102 75 54
0.0326928 -0.902011   3.50924 115 88 61
0.665973 -2.12167  3.94294 120 92 70
-0.20708 -1.51472  3.44348 108 82 59
  1.49447 -0.835481   3.03127 117 91 64
0.398341 -0.21554  3.44188 119 105 92
0.970209 -1.41585  3.42456 104 78 55
0.755677 -1.36344   3.5108 112 91 72
 0.452257 -0.185958   3.42308 104 86 72
  1.34386 -0.486217   2.99612 96 73 55
 0.217429 -0.103836   3.96452 87 66 49
 0.841711 -0.340897   3.17801 66 43 27
0.996415  -1.3109  3.30626 94 66 44
 0.633032 -0.110111   3.21022 119 92 65
 0.482807 -0.476825   3.41792 101 74 53
0.0746086  -1.31372   3.33464 83 65 51
0.368962 -1.50599  3.50932 86 60 45
  1.1292 -1.33457  3.27461 118 90 66
0.770604 -1.14824  3.31621 128 101 80
  0.476293 -0.0717504    3.37059 72 54 40
 1.01234 -1.01806   3.1064 130 96 68
 1.49303 -1.21415  3.19657 114 95 78
 0.853716 -0.910709   3.07717 127 96 68
  1.04896 -0.308162   3.04404 98 77 60
 0.405054 -0.815095   3.35135 102 77 55
0.696633 -0.59199  3.36504 118 111 105
 1.20946 -1.25611  3.20995 97 71 46
 1.20783 -1.21335  3.19416 119 92 65
   1.28972 0.00809986    3.15389 76 54 41
  1.19529 -0.541919    2.9802 116 100 87
0.164292   -1.089  3.45395 118 92 69
  0.80953 -0.880605    3.0693 104 74 48
0.816116 -0.87842  3.09007 104 74 48
 1.50846 -1.20493  3.19206 116 90 73
 0.804895 -0.854503   3.07906 105 75 49
0.333151 -1.55752  3.50249 100 78 57
 1.80433 -0.26399  3.24565 103 96 88
  0.635034 -0.0576276    3.19346 105 77 63
 0.78986 -1.16712  3.31948 102 74 50
 0.118568 -0.771183   3.45426 83 62 43
0.837955 -1.27216  3.36548 120 94 67
0.293576  -1.2606  3.50699 118 109 102
  0.95175 -0.367144   3.08133 84 72 60
0.156229 -1.15247  3.48677 91 70 53
 1.03719 -2.14587  4.10409 108 90 76
  2.00653 -0.457464   3.25749 115 87 65
0.599362 -1.36361  3.54499 110 89 68
  0.21896 -0.127461   3.98318 78 55 37
  1.64191 -0.352458   3.13467 74 57 41
 0.507949 -0.382629   3.40168 75 50 30
 0.541089 -0.381583   3.39508 80 59 42
 0.333709 -0.209811    3.4723 81 58 40
0.0387262 -0.955019   3.49398 116 88 64
 0.965285 -0.967473   3.06953 132 101 73
 0.426757 -0.108372   3.36945 102 77 57
0.569691 -1.20456  3.42714 103 77 62
 1.72474 -1.18367   3.2553 117 92 72
0.803537 -1.34873  3.48066 114 88 71
0.904654 -1.33471  3.37037 118 90 66
0.0060277  -1.06632   3.55656 88 67 50
0.429338 -1.40172  3.54343 90 69 52
    0.84745 -0.00269047     3.14671 78 55 39
 0.805032 -0.043565   3.12994 69 48 31
 0.119382 -0.847316   3.43313 119 91 69
0.0997176   -1.5522   3.37095 97 70 49
 0.90903 -2.13011  4.10181 120 109 91
  1.03976 -0.650937   2.96824 121 93 69
 0.961252 -0.476309   3.04153 112 87 65
 0.224412 -0.120207   3.96035 76 55 36
  1.61753 -0.342972   3.12287 91 74 58
 0.951724 -0.540042    3.0347 105 91 78
0.314799 -0.57246  3.47398 79 65 52
0.769727 -1.95552  3.94122 65 51 40
 0.990065 -0.807426   3.00083 104 79 57
 0.768904 -0.123344   3.14581 109 82 55
 0.912514 -0.926702   3.05501 112 85 58
0.588697 -1.85344  3.90223 56 40 27
 0.491105 -0.986969   3.35779 94 79 60
   1.6986 -0.564432   3.12667 99 80 63
  1.20539 -0.492539   2.98987 102 80 67
  1.34934 -0.658573   2.97814 106 78 56
  0.28597 -0.757217   3.38173 125 93 68
 0.983604 -0.871676   3.01101 109 83 60
   -1.5388 -0.0667671    7.11228 112 86 63
-0.0574636   -1.65799    3.35414 126 96 68
0.333687 -1.35536  3.49666 85 69 56
0.0539103 -0.814344   3.48847 78 58 34
0.645747 -0.12304  3.23839 120 88 63
   0.3088 -0.979307    3.3902 132 113 98
0.883742 -1.12644  3.26854 124 97 78
 0.575837 -0.695066   3.34382 98 82 67
 0.522699 -0.493252   3.38047 100 74 51
 0.941415 -0.373935   3.08367 66 48 34
 0.410929 -0.200396   3.42296 106 87 72
 0.613328 -0.061247   3.20919 105 78 57
 0.992492 -0.283514   3.08371 74 57 39
 1.27162 -1.03121  3.10035 135 115 104
0.880068 -1.16845   3.2765 123 95 71
0.0839451  -1.45912   3.31182 118 90 68
 0.448032 -0.523672   3.43078 84 68 53
0.451468 -0.52318  3.42838 84 68 53
0.719364 -1.27095  3.43367 105 80 58
 0.787718 -0.915279   3.15549 117 89 65
 0.145866 -0.701319   3.47017 68 47 30
 1.50264 -1.14092  3.15144 109 91 71
  2.10024 -0.505413    3.3034 122 92 66
 1.10385 -2.31784  4.17943 95 79 66
0.480275 -1.19356  3.43101 104 74 48
  1.12408 -0.919299   2.99698 104 74 50
  1.21214 -0.427159   2.99072 104 77 58
 1.64014 -1.22741  3.23321 108 78 54
  1.83115 -0.297008   3.25686 119 109 99
  1.72688 -0.460758   3.14499 104 74 50
 1.48321 -1.14467  3.15443 118 94 70
 1.28262 -1.06639   3.1228 121 95 72
   1.12472 -0.0203692    3.14729 89 72 54
 0.120867 -0.904796   3.42972 117 87 63
 0.119884 -0.903022     3.429 117 87 63
0.534239 -1.89477  3.86615 77 59 47
 0.275274 -0.921014   3.37531 113 87 62
  0.279138 -0.0936008    3.37277 119 88 67
 0.869897 -0.345057   3.14722 96 69 48
 0.30865 -1.09174  3.41614 125 97 73
0.307176 -1.09175  3.41537 125 97 73
  0.571269 -0.0937724    3.30082 90 67 49
 1.12587 -1.35941  3.28651 106 80 57
0.982401 -2.11426  4.04827 107 91 75
 0.142518 -0.851032   3.41575 96 68 47
 0.213162 -0.120056   3.40791 116 86 60
 0.508804 -0.253851    3.4254 83 62 45
0.385947 -1.57223  3.54052 95 69 46
 0.983612 -0.363925   3.06742 88 62 45
    1.39016 -0.00996671     3.15663 65 47 33
 0.408543 -0.941032   3.35153 110 91 76
 1.08646 -1.00958  3.08361 108 80 56
0.134226 -0.87821  3.42048 109 81 57
 1.53545 -1.25883  3.21157 111 85 62
   1.20278 -0.0117945    3.15785 70 51 36
0.649342 -0.53909  3.36758 61 44 36
0.524817 -1.89007  3.86535 99 82 72
 1.27939 -1.47163  3.37163 109 81 59
0.490397  -1.9064  3.83854 96 77 62
0.128875 -1.75317  3.45008 111 83 62
 1.21764 -1.18053  3.18934 87 62 42
0.930916 -0.59248  3.03918 93 73 62
0.768435 -1.09685  3.29185 102 77 55
0.822892 -1.29734  3.40209 126 109 93
  1.28249 -0.527811   2.98477 102 75 54
0.239682 -1.18088   3.4744 87 66 49
  1.71107 -0.782024   3.11776 83 60 42
  1.35335 -0.541686   2.98732 87 68 51
  1.11354 -0.527679   2.98848 114 97 81
 0.756556 -0.287053    3.3833 127 120 112
 0.449242 -0.151571   3.39499 109 80 62
 0.137564 -0.956682    3.4238 117 91 74
 0.800714 -0.955561   3.20607 119 97 76
  1.28054 -0.969682    3.0484 115 91 65
 1.52946 -1.05151  3.10065 112 86 61
0.709372 -1.37873  3.54051 103 78 56
0.251817 -1.79893  3.50821 104 77 56
  1.07648 -0.850637    2.9937 97 72 52
  1.63022 -0.957718   3.09895 104 78 55
 0.691325 -0.212631   3.29796 88 65 47
    1.27499 -0.00727737     3.14725 64 42 28
0.711157 -1.26004  3.43196 118 96 75
 0.78433 -1.12155  3.29944 119 89 65
 1.27965 -0.98382  3.04942 133 112 91
  1.38344 -0.958374   3.05991 116 96 72
 1.41129 -1.01265  3.07019 111 90 71
0.949495 -2.08753  4.05792 121 105 92
 0.482689 -0.444436   3.41208 98 73 53
 0.367621 -0.192308   3.42969 85 63 42
  1.49159 -0.572386   3.02724 81 60 43
0.210559 -1.47959  3.42149 106 85 68
0.785217 -1.34953  3.49728 112 89 71
0.976372 -2.14205  4.08226 120 104 91
 1.57959 -1.08198  3.13646 119 103 78
  1.28014 -0.065335   3.14329 81 64 48
  1.28769 -0.555331   2.97591 97 76 59
0.0404202  -1.39602   3.28618 107 79 57
 0.744898 -0.131268   3.16264 122 90 67
 0.117175 -0.669838   3.51061 71 50 33
0.0899184 -0.753232   3.48407 84 58 41
 1.06062 -2.23358  4.14687 117 101 86
 0.118345 -0.710936   3.48686 87 64 46
 0.897266 -0.734122   3.03598 117 99 85
0.318241 -1.65999  3.55927 106 84 70
 0.275111 -0.849058   3.37732 124 106 92
 0.448599 -0.572389   3.40998 88 63 43
  0.650423 -0.0976166    3.18471 113 89 65
 1.09047 -1.44857  3.40502 111 81 55
  1.0839 -2.37965  4.15525 90 76 63
0.585082 -0.50351  3.36822 72 49 31
-0.0684776   -1.63083    3.33817 124 94 66
 1.21536 -1.44881  3.34759 111 85 62
 1.16805 -1.42326  3.34214 113 87 62
0.542316 -1.28924  3.48941 100 74 51
 0.489309 -0.836272    3.3585 130 123 113
  1.5827 -1.02701  3.12338 104 79 57
0.657058  -1.1185  3.35264 116 90 67
0.0121023 0.0544978   4.42152 199 198 194
 0.287831 -0.546179   3.51395 72 56 43
  1.55469 -0.728757   3.03312 93 67 50
0.552232 -1.01167  3.36236 116 99 83
  1.15895 -0.818736   2.97388 122 92 66
 0.784207 -0.798493   3.07107 123 93 67
 0.400889 -0.869077    3.3503 116 86 62
0.376172 -1.30028   3.5178 121 108 102
0.865217 -1.13613   3.2798 97 76 55
 0.729309 -0.482331   3.38852 121 112 107
  1.2307 -2.34115  4.24501 94 67 46
 0.580281 -0.761478   3.33982 91 68 50
0.432448 -1.09383  3.39758 115 98 82
 1.06112 -2.17671  4.13307 120 102 88
  1.45277 -0.720856   3.00063 90 63 42
0.604254 -1.83529  3.93761 48 35 26
0.499939 -1.96221  3.87967 107 86 69
0.524537 -1.33735    3.536 109 84 62
 0.638462 -0.531768   3.36702 79 60 46
0.706887 -2.11924  3.95517 109 83 66
 0.497559 -0.248018   3.43174 101 76 56
 0.833225 -0.564321   3.09835 92 65 48
 0.833335 -0.563888   3.10004 92 65 48
 1.43242 -1.40611  3.30244 125 95 69
 1.17956 -2.28949   4.2121 109 88 71
-0.0611332   -1.60618    3.32864 137 107 79
0.568198 -1.03391  3.36028 127 108 93
 0.509806 -0.944741   3.35638 123 113 104
0.349546 -1.15128  3.43702 104 79 57
0.349286 -1.15056  3.43339 104 79 57
0.0710615  -1.56881   3.35392 92 65 44
0.529294 -1.92202  3.86405 98 72 55
  1.32042 -0.536333   2.98633 89 70 55
-0.407691 0.0547364   3.83959 211 207 206
 0.714839 -0.564693   3.35792 120 113 107
0.0161828  -1.08423   3.55458 89 70 55
0.678691 -1.34956  3.50976 116 90 65
0.317081  -1.0652  3.39777 132 115 99
 0.562914 -0.463143   3.37948 83 56 35
  1.44191 -0.514833   3.03196 85 66 49
 1.02298 -1.41457  3.41518 119 89 63
 0.874052 -0.848347    3.0399 101 74 53
0.553233 -1.98266  3.89349 103 78 56
 1.54076 -1.18542  3.18738 116 91 69
 1.45423 -0.97098  3.05654 116 95 76
  1.49623 -0.134453   3.15549 90 69 52
0.669443 -0.15526  3.20746 117 89 65
-0.00327137    -1.01134     3.54539 95 67 45
 0.812469 -0.125384   3.14484 109 79 55
1.00611 -1.0662 3.21521 134 127 117
0.513105 -1.96833  3.87888 87 59 45
  1.51669 -0.189979   3.16135 92 82 72
0.048787 -1.70807  3.39252 120 90 62
 0.155107 -0.847594    3.4131 95 67 46
 1.07198 -1.36871  3.31737 115 91 65
0.937774 -1.24354  3.29666 115 87 63
0.741385 -1.07621   3.2998 115 93 70
 0.105276 -0.814931    3.4474 96 68 47
-0.0361926   -1.72272    3.38771 117 87 61
0.500557 -1.24206  3.45094 105 80 60
 0.441119 -0.863792   3.34872 113 88 68
 0.663821 -0.611887    3.3585 91 80 74
 0.705078 -0.901107   3.28635 148 141 133
 0.240878 -0.773406   3.39867 134 118 105
0.965709 -1.23242  3.27588 115 84 63
 0.566474 -0.554228   3.36182 85 59 42
0.839988 -1.13777  3.27907 99 71 50
-0.0712575   -1.70126    3.38152 141 110 82
0.753692 -0.84709  3.13504 117 89 67
 0.998618 -0.484986   3.02154 109 88 71
 1.07639 -1.38363  3.33122 105 79 52
0.0650001 -0.710783   3.52413 73 50 32
   1.4564 -0.850823   3.03326 132 123 116
  1.70937 -0.642156   3.12462 77 64 47
  1.64508 -0.897316   3.09461 93 66 45
 1.48499 -1.19489  3.18421 112 83 67
 1.80179 -1.10925  3.26934 117 87 61
 0.52669 -1.23759  3.44594 106 80 57
 0.303589 -0.557731    3.4918 64 50 37
 0.963013 -0.781949   3.00752 100 72 50
 0.234115 -0.136734   3.96637 87 66 49
0.593413 -1.00468  3.33242 112 87 67
0.858743  -2.1383  4.04646 122 112 103
 1.05832 -1.00208  3.06885 122 90 65
 0.612527 -0.121119    3.2598 109 82 61
0.696375 -1.11321  3.32229 106 80 57
   0.4934 -0.193314   3.41241 109 88 71
 0.94049 -1.36815  3.38427 120 90 62
0.0483459 -0.999049   3.49911 112 84 62
   1.36566 -0.0516427    3.14428 71 49 35
    1.068 -0.635594   2.96785 122 92 68
0.0738709  -1.44253   3.30331 115 87 65
 1.24472 -1.30273  3.23536 110 83 56
 0.50461 -1.38197  3.58783 130 121 112
 0.981491 -0.967214   3.06253 131 100 72
  1.32099 -0.943726   3.03345 118 86 61
0.999087 -1.11227  3.22553 110 93 77
 0.520327 -0.276187   3.42212 75 52 34
0.307311 -1.18963  3.45679 108 81 60
  1.02727 -0.378378   3.03878 82 65 49
 0.327807 -0.604527   3.44571 85 71 60
0.787127 -1.14903  3.29092 114 84 60
0.151725  -1.4023  3.35288 86 63 45
 0.845011 -0.610718   3.07306 96 68 46
0.294079 -1.53525  3.47944 107 79 55
 0.869954 -0.132272   3.14259 88 64 40
0.847595 -1.18399  3.29994 104 76 52
0.184934 -1.22771   3.5073 119 112 106
 0.421182 -0.242188   3.46541 115 96 81
  1.44147 -0.758741   3.00159 109 83 60
   1.33596 -0.0845959    3.14063 87 65 51
 0.319374 -0.205385   3.47959 89 66 48
 0.467593 -0.385301   3.43491 83 56 35
 1.42828 -1.38203  3.27955 121 91 67
 0.539707 -0.807945   3.35395 110 88 67
0.0363248  -1.00575   3.50225 96 68 46
 1.32963 -1.29047  3.22773 106 79 62
 0.239957 -0.884764   3.38434 109 92 74
0.457119 -1.16872  3.42857 114 88 61
 0.674493 -0.344045   3.41542 64 55 48
 0.602563 -0.494251   3.37402 64 45 30
0.179313  -1.7247  3.48242 83 65 53
0.685122 -1.10548  3.33308 118 94 70
 1.24388 -1.46745  3.36918 118 90 66
0.512012 -1.23805  3.44815 107 80 59
  0.89811 -0.898313   3.05086 108 81 52
-0.228362 0.0562052   3.54743 203 202 198
 0.598686 -0.862864   3.32857 130 122 119
0.657891 -1.95304  3.91314 99 71 49
   0.95426 -0.0733647    3.14087 85 59 42
 1.16435 -1.10539  3.18785 106 79 58
 1.16431 -1.10702  3.18839 106 79 58
0.924634 -1.34302  3.36817 121 96 74
 0.819243 -0.768329   3.04011 115 85 61
  2.00693 -0.439296   3.24352 109 81 59
 1.07131 -1.19667  3.22125 111 83 61
-0.107591  -1.55668   3.30257 121 91 65
 1.26912 -1.08162  3.14413 126 98 77
  1.18059 -0.590646   2.97595 127 108 101
  0.28128 -0.127981   3.38874 111 81 57
0.702119 -1.13472  3.34473 105 79 56
 0.708312 -0.994709   3.29934 125 98 79
  1.23207 -0.450414   2.98786 104 76 54
 0.949137 -0.274254   3.11586 81 62 47
 0.270977 -0.193758   3.46624 97 69 47
 1.64426 -0.85524   3.0934 115 98 82
  1.01442 -0.489393   3.01291 107 88 73
 0.992319 -0.972207   3.05578 115 84 56
-0.151142 0.0460789   3.63338 198 194 191
0.067937 -1.11295  3.54149 86 68 54
 1.05033 -1.18139  3.22135 103 72 51
  0.49036 -0.393296   3.40945 91 64 43
  1.01828 -0.446714   3.01412 90 65 45
  1.00347 -0.909641   3.02359 109 79 53
  1.06313 -0.498266   3.00808 104 86 72
  1.06252 -0.312694   3.04294 118 99 82
 0.41123 -1.45509  3.52949 74 51 35
-0.129742  -1.53523   3.32588 128 98 74
  1.40492 -0.248924   3.08792 74 61 52
  1.86482 -0.300939   3.23256 87 69 49
  0.344813 -0.0926475     3.3682 98 74 48
0.629134 -0.60696  3.35382 85 63 49
  1.1604 -1.16483  3.19183 102 75 58
0.465578 -1.50677  3.58624 92 69 51
0.0468449  -1.53711   3.32983 112 82 56
0.0569829  -1.39618   3.29047 102 74 52
 0.923988 -0.290329   3.12794 103 89 76
0.669958 -2.08675  3.94191 98 71 50
 0.954798 0.0494006   3.00288 174 169 165
 0.898142 0.0500963   3.03884 168 163 157
 0.963229 -0.574581   3.02254 102 76 61
 1.96766 -0.33468  3.21928 107 83 59
  1.5783 -1.06461  3.13035 120 100 75
 1.60163 -1.21567  3.19574 115 85 59
0.543433 -1.35702  3.55107 101 76 54
 0.641224 -0.872219   3.31056 98 75 57
0.412207 -1.21871  3.46001 115 87 65
   1.1624 -0.444476   2.98032 112 84 62
 0.654496 -0.936981   3.30255 94 75 61
0.396543 -1.55322  3.53933 103 77 54
 0.493024 -0.118795   3.37257 89 71 49
0.444556  -1.4881  3.55739 92 71 54
  1.24927 -0.501814   2.98015 103 84 69
 0.550077 -0.313648   3.41679 64 45 31
 1.20097 -1.12807  3.19554 104 90 79
  2.06262 -0.548244   3.32878 102 75 54
  1.69741 -0.801999   3.11664 107 79 55
0.0223819 -0.945155   3.50522 101 73 49
  1.2813 -1.20896  3.20218 99 71 49
 1.10218 -2.23019  4.16498 106 88 74
 0.102945 -0.860566    3.4337 109 82 55
0.447786 -1.14332  3.40284 115 88 61
 0.104011 -0.885024   3.44073 109 79 53
0.818231 -1.36039  3.48172 123 92 72
 0.591431 -0.281499    3.4194 64 54 42
  1.71221 -0.988225   3.14504 109 83 60
