ply
format ascii 1.0 
element vertex 1229
property float x
property float y
property float z
property uchar red
property uchar green
property uchar blue
end_header
-0.551867  -1.18585   3.77906 127 98 80
-0.975715   -1.3758   3.74004 139 113 90
 -1.16918 -0.679004   3.63789 77 64 56
-0.626732 -0.789885    3.5172 123 101 87
-0.977048 -0.197822   3.60493 70 56 43
 -1.40113 -0.697387   3.57921 84 61 45
 -1.53921 -0.524778   3.61957 111 97 84
 -0.78394 -0.326005   3.56819 105 91 80
-1.31457 -1.32493  3.69135 105 83 62
-1.22761 -0.20619  3.59481 107 95 83
-0.622078 -0.249086   3.61926 112 99 90
  -0.4715 -0.397865   3.67012 120 112 99
-1.26437 -1.43891  3.79272 107 81 58
-1.5924 -1.4432 3.67201 99 82 66
-1.96618 -1.62371  3.18734 158 144 133
 -1.43856 -0.778406   3.55931 107 88 73
-0.717098 -0.927054   3.50831 96 68 44
-0.836977 -0.840084   3.46088 103 75 53
-0.62446 -1.22461   3.7901 144 137 127
-0.360353  -1.35609   3.96599 143 130 113
-0.296183  -1.18191   3.90513 107 75 54
-0.844402 -0.656857   3.48786 89 67 54
 -1.54545 -0.866185   3.49181 78 59 44
-1.27906 -1.25447  3.64885 137 124 105
-1.11816 -1.03956  3.60892 173 166 158
  -1.14921 -0.0554462    3.48017 114 86 62
 -0.35086 -0.907013   3.73215 105 85 61
-0.669754 -0.407411   3.57332 79 65 54
-2.01302 -1.59556  3.20169 158 144 133
-0.365168  -1.12525   3.79945 95 69 46
-1.13901 -1.03941  3.61178 90 80 71
-1.78629 -1.99033  3.48961 112 97 76
-0.990626 -0.700472   3.47458 101 82 67
 -1.39431 -0.841063   3.56417 98 78 67
-1.93442 -1.68315  3.19254 96 69 48
-0.911719  -1.18228   3.68625 160 153 147
-2.07827 -1.53708  3.21484 98 71 52
 -1.40691 -0.140339   3.60572 86 66 55
-2.07186 -1.45653  3.24966 73 57 44
 -1.60269 -0.810789   3.47232 93 72 55
 -1.49333 -0.782833   3.52633 83 67 52
 -1.5668 -1.20605  3.53551 112 90 69
 -1.7609 -1.45853    3.519 118 111 105
 -1.5151 -0.47164  3.61546 75 54 37
-0.779402 -0.506126   3.51697 97 73 49
-1.0896 -1.0416 3.59691 107 92 71
 -1.43346 -0.588842   3.58815 78 57 36
-1.14602 -1.24192  3.65609 125 109 93
-1.17065    -1.04  3.60649 82 64 52
-1.65938 -1.10903   3.4619 148 132 119
-0.844604  -1.05852   3.52606 144 127 111
-1.80807 -1.02751  3.41015 104 74 50
-0.593585  -1.48369   3.89545 129 112 96
 -1.42766 -0.239844     3.635 106 93 76
-1.29412 -1.17075  3.61246 130 113 93
 -1.51608 -0.286053   3.62572 114 96 82
-0.964502 -0.476216   3.54326 110 94 78
-0.425186  -1.11811   3.76674 100 75 55
-1.34747 -1.18615  3.61606 111 89 66
-0.288482 -0.854591   3.76976 107 74 59
-1.39325 -1.20782  3.60245 137 123 112
 -1.71089 -0.922886   3.43402 101 75 60
 -1.21978 -0.172735   3.55119 97 71 54
-1.01383 -1.18428  3.66106 156 140 127
-0.910596 -0.721444   3.45758 114 93 76
-0.424779 -0.649952   3.64198 125 109 96
-1.74595 -1.17716  3.46231 103 76 57
-0.671909 -0.753177   3.49351 109 81 60
-0.893672 -0.433946   3.53677 69 51 39
-0.788729 -0.983237   3.49243 101 71 45
 -1.2589 -1.19716  3.63414 101 77 53
-1.54566 -1.03312  3.48977 97 78 63
 -0.57251 -0.746572   3.54092 98 77 60
-0.848756 -0.367695   3.55207 69 55 44
-0.802778  -1.46599   3.81689 132 116 100
 -1.60606 -0.242308   3.61021 125 113 97
 -1.9459 -1.61287  3.19111 93 72 55
-2.11782 -1.04292  3.50616 123 102 83
-1.14348 -1.07118  3.61441 103 87 74
-0.559393 -0.964781   3.57844 136 112 88
-0.555929 -0.611752   3.57411 130 123 107
 -1.41937 -0.078909   3.58126 76 60 47
 -1.65611 -0.976615   3.44517 92 69 51
-0.650304 -0.966065   3.53283 95 65 41
-0.900823 -0.756532    3.4563 91 63 51
 -1.03513 -0.440299   3.59864 105 89 76
 -1.6307 -1.05286  3.46545 108 84 60
-0.604802  -1.52713   3.92132 131 114 98
 -1.36915 -0.101177   3.58431 94 76 62
-0.0159993  -0.404698    4.24261 84 66 54
-0.641636  -1.55016    3.9212 132 114 90
 -1.57446 -0.957873   3.46667 109 81 57
 -1.91965 -0.964861   3.42454 132 110 89
 -1.77663 -0.813929   3.45043 89 63 46
-0.523054  -1.03218   3.63009 107 72 50
-0.437108  -1.16727    3.7742 129 99 71
-1.44271 -0.92791  3.53994 93 75 63
-0.914452 -0.276474    3.5918 113 103 91
  -1.6191 -0.962248   3.44924 132 115 97
 -1.62196 -0.792579   3.47719 82 59 41
  -1.3006 -0.800448    3.6083 72 56 43
 -1.03866 -0.812531   3.45346 111 83 59
-0.679975  -1.32215   3.77462 132 110 89
-0.681198 -0.839972   3.50517 103 78 58
-1.59232 -1.26375  3.54585 110 88 67
 -1.44198 -0.487679   3.60204 103 75 53
  -1.53 -1.0639  3.4902 128 103 72
 -1.37512 -0.793118   3.57032 151 133 121
-1.51964 -1.00393  3.49116 138 124 113
-0.650972 -0.571545     3.533 115 101 90
-0.579841 -0.986545   3.57388 99 69 43
-1.14593 -1.58726  3.97787 151 133 113
 -0.634423 -0.0273044    3.75268 94 76 64
 -0.54641 -0.524228   3.58277 102 76 53
 -1.86715 -0.989944   3.41622 101 75 50
-0.512484 -0.374723   3.64924 110 94 79
-1.64953 -1.13517  3.47568 105 82 64
 -1.12651 -0.121588   3.48954 103 71 48
 -1.30591 -0.899353   3.58109 88 69 55
-0.883452 -0.551475   3.50557 97 78 64
-0.890918 -0.837357   3.44402 100 78 57
-0.640989  -1.35286   3.79811 129 99 73
-1.22011 -1.37122  3.73366 131 114 98
-0.626712 -0.544556   3.54569 92 69 53
 -1.60494 -0.882801   3.46454 93 66 45
 -1.65454 -0.909769    3.4538 110 82 68
-0.638155  -1.42739   3.83753 101 71 45
-0.992837  -1.42611   3.76733 104 77 56
-2.07842 -1.08955  3.48211 131 115 102
-1.72827 -1.63457  3.45521 108 89 74
-1.41995 -1.22569   3.5827 96 71 49
-1.36242 -1.04521  3.57296 103 80 64
-1.80731 -1.08184  3.42226 99 78 61
 -0.865473 -0.0354986    3.60199 86 68 54
-0.522113 -0.977697   3.60812 100 72 51
-1.40042 -1.49704  3.79549 95 70 48
-1.16402 -1.09427  3.61017 97 87 75
-1.85004 -1.55823  3.20953 89 61 40
-1.43858 -0.53919  3.59462 78 53 31
 -1.45642 -0.385715   3.60763 94 67 46
 -1.28659 -0.456993   3.68279 76 67 60
  -1.3158 -0.741669   3.60231 107 91 78
-0.566379  -1.16998   3.77278 111 92 75
-0.734568 -0.108515   3.70423 78 60 48
-1.51783 -1.75644  4.00744 190 189 187
 -1.39852 -0.555911   3.59605 134 108 85
 -1.49668 -0.132761   3.54883 110 82 60
-1.14595 -1.14364  3.61953 98 79 64
-0.782066  -1.43765   3.80284 128 113 94
 -0.799676 -0.0299987    3.65687 88 70 56
 -1.42323 -0.317234   3.63656 67 44 28
-1.52435 -1.03001  3.49016 88 69 52
-0.896756  -1.01635   3.49705 142 111 83
 -1.84163 -0.957501   3.41011 141 114 87
 -1.26017 -0.823822   3.62235 99 90 83
  -1.1463 -0.159889   3.51141 103 78 56
-0.922885  -1.38813    3.7539 98 70 46
-1.52173 -1.25264  3.56494 102 83 66
 -1.71404 -0.141553   3.45802 98 68 40
-1.90898 -1.51931  3.19654 81 58 40
-0.361693 -0.795173   3.69423 105 77 56
 -1.46101 -0.868856   3.53646 123 109 96
 -0.54887 -0.310947   3.64266 100 74 59
-0.930095  -0.39685   3.55412 80 57 41
 -1.47262 -0.241066   3.62688 103 69 57
 -1.39341 -0.884545   3.56647 101 88 72
  -1.6771 -0.153699   3.47307 123 96 67
 -1.70553 -0.976844   3.42682 128 111 93
-0.426611 -0.718327   3.63883 119 103 87
-1.47357 -1.17451  3.55589 104 76 54
-0.442801  -0.76273   3.63261 97 81 58
-1.57248 -0.59914  3.59078 92 78 67
-1.89146 -1.47477  3.21954 68 49 35
  -1.02484 -0.0474663    3.50231 66 43 25
-0.531346 -0.623469    3.5748 96 70 53
-0.760875 -0.731546   3.47486 93 70 52
 -1.53025 -0.113816   3.51411 76 51 31
 -1.05344 -0.101949   3.49463 128 98 74
-0.610852 -0.829642   3.52904 92 65 44
   -1.5028 -0.0695535    3.52294 82 56 39
-1.16051 -1.38052  3.74328 133 116 100
 -1.66731 -0.861198   3.45537 106 81 61
-0.938516  -1.45743   3.78912 101 73 51
-0.589394 -0.665097   3.54521 94 73 54
 -0.701119 -0.0200562    3.72403 87 74 58
-0.941518  -1.26732   3.69836 99 80 65
 -1.8131 -1.14415  3.44284 108 86 63
-0.80941 -0.35601  3.55714 95 81 70
-1.41074 -1.75799  4.05073 193 192 190
 -1.7352 -1.26889  3.48934 83 60 42
-0.879336 -0.585116   3.49849 104 87 69
-1.19302 -1.40086  3.75401 111 88 70
-0.948628  -1.32549   3.71372 98 71 50
-1.76559 -2.00762  3.51905 88 63 43
-0.733366 -0.680473    3.4902 103 75 53
 -2.05183 -0.107227   3.99561 117 94 78
-0.622555 -0.345798   3.60046 95 76 61
-0.835876 -0.434046    3.5352 69 47 33
-0.785134 -0.934854   3.48386 101 85 69
-1.61744 -4.91353  11.0006 203 202 200
-2.13231 -7.05264  14.5172 200 199 197
 -0.49509 -0.345521   3.66475 82 65 49
 -1.64003 -0.211717   3.55996 73 47 30
 -1.48995 -0.175234   3.57836 99 74 54
-0.896298 -0.867567   3.44618 98 72 49
-1.30617 -1.38521  3.73907 129 111 91
-1.89496 -1.68166  3.20433 128 100 76
-2.04119 -4.64474  10.8396 205 204 202
-1.67641 -1.15376    3.471 103 78 56
-2.18345 -5.14261  10.7746 212 211 209
-2.12133 -1.08079  3.49884 88 65 47
 1.73211 -2.83662  10.6294 205 205 203
-5.22876 -5.02831  9.97989 192 191 187
-0.855239  -1.31221   3.72517 88 63 43
-2.04187 -4.78196   10.863 202 201 199
-0.941082 -0.152579   3.57493 122 97 75
 -1.47193 -0.073609   3.54301 93 74 59
-1.61565 -5.16554  10.9955 197 196 194
-0.737749 -0.863468   3.49345 103 81 68
-1.02636 -1.23204  3.67181 123 100 82
-2.33071 -5.15843  10.7887 206 205 203
-1.96504  -1.8283  3.21736 166 136 108
 -1.19418 -0.893072   3.60287 143 134 125
 -1.79561 -0.655782   3.53016 97 79 65
-0.472013 -0.500135   3.64418 95 68 49
 -1.50753 -0.684857   3.56735 130 114 101
-1.75374 -2.88265  10.8493 201 200 198
-0.901464  -1.95076    5.5947 200 200 200
-1.69395 -1.40955  3.59251 138 129 124
 -1.71261 -0.795064   3.46658 99 72 51
-1.75187 -2.75514  10.8133 208 208 208
-3.11745 -1.68044  3.85549 188 187 183
 -1.48456 -0.577611   3.58965 108 92 77
-1.33304 -5.17807  11.1054 200 199 197
-1.76514 -5.44012  11.0096 204 203 201
-2.33121 -5.03631  10.7983 207 206 204
-0.981195  -1.24825   3.68476 104 83 66
-0.878567 -0.583555   3.49973 101 88 72
-0.636039  -1.08674   3.61351 127 96 68
-1.86761  -1.0865  3.42358 105 77 55
  -1.61643 -0.0526459    3.45041 99 75 51
-1.05394 -1.05797  3.60226 102 86 73
 -1.41001 -0.955241   3.56223 115 97 83
-2.61399 -5.14704  10.6881 212 211 209
-1.91819 -1.64572  3.19142 99 69 43
-1.58558 -1.15382  3.50786 108 89 72
-1.76237 -5.05346  10.9917 203 202 200
 -1.43087 -0.652787   3.56716 77 58 41
-2.47774 -5.28446   10.749 210 210 208
-0.438336 -0.119546   3.85468 86 73 57
-1.63635 -0.83135  3.46577 121 91 67
 -1.93174 -0.990009   3.42586 94 68 45
-2.33293 -4.91346  10.8095 206 205 203
  -1.04142 -0.0163778    3.49389 95 70 50
-2.47713 -5.16153  10.7572 218 217 215
  -0.8837 -0.815461   3.44247 95 73 59
 -1.58309 -0.744717   3.50976 81 62 47
-0.843677 -0.498161   3.55583 107 89 67
-0.664463  -1.33657    3.7804 86 65 46
-0.832843  -1.25613   3.71926 111 89 75
-0.734031 -0.818118   3.49021 101 82 65
-0.900153 -0.512454   3.51287 90 68 54
-2.4802 -5.4288 10.7936 207 207 205
-1.18613  -1.1723  3.62672 130 113 97
-1.89878 -4.77075  10.8709 206 205 203
 -1.5065 -1.05221  3.50028 88 67 48
-1.87419 -1.51892  3.20549 113 83 59
-0.744939  -0.75653   3.47629 98 73 53
 -1.48667 -0.194436    3.5983 105 79 64
 -1.38792 -0.301509   3.65251 81 68 60
-2.02671 -1.48792  3.22882 112 98 87
-2.18831 -5.29098  10.8473 211 210 208
-1.87843 -1.61555  3.20142 106 76 50
-0.781251 -0.592372   3.50432 84 64 53
-1.56765 -2.23136  4.21983 113 101 87
-0.296509 -0.903478   3.77962 108 87 70
-2.33572 -5.42386  10.8173 212 212 210
 1.48374 -2.73032  10.6076 206 206 204
-1.51896 -2.28024  4.29079 152 145 139
-1.75976 -4.91259  10.9555 201 200 198
-2.04651  -5.2957  10.8905 211 210 208
 -1.59713 -0.828242   3.47766 90 69 52
  -1.1761 -0.133017   3.49692 95 70 48
-1.97227  -1.3072  3.48018 88 79 70
-1.21354 -1.30123  3.68077 107 82 60
-1.51744 -2.22476  4.22297 143 120 89
 -1.28361 -0.974085   3.58289 86 63 49
-1.75577 -1.15226  3.45402 103 80 62
-0.964902  -1.48049   3.79921 101 80 61
  -1.4245 -0.438782   3.60516 70 52 38
-0.375822 -0.666972   3.67843 80 61 44
-0.897377  -1.27412    3.7166 94 69 47
-5.42401 -4.55488  8.68875 206 205 203
 -1.27668 -0.797508   3.62023 116 106 97
-0.998293  -1.08998   3.61342 109 96 80
 -1.68496 -0.693078   3.51735 69 50 36
-0.875907   -1.2412   3.70701 130 113 97
-1.27015 -0.16447  3.56759 125 110 91
 -1.6342 -1.58904  3.59725 98 76 53
-0.334114  -1.33416   3.97229 149 130 115
 -0.802962 -0.0638094    3.64894 70 49 32
-1.01726  -1.5498  3.87748 125 105 81
-0.916546 -0.325558    3.5744 78 59 44
  -1.57751 -0.0557321    3.46986 83 58 38
 -1.4686 -1.29506  3.59735 139 112 85
-1.18062 -1.27908  3.67626 120 108 86
-0.545858 -0.845829   3.55632 120 92 68
-0.565967 -0.266634   3.64205 89 69 44
-1.89266  -1.7248  3.21315 131 107 83
-1.60762 -2.19604  4.16087 102 86 73
  -1.07396 -0.0172479    3.47339 97 70 49
-0.363463 -0.610368    3.7038 93 72 55
-1.32265 -1.44683  3.76589 129 113 98
-0.597928 -0.643625   3.54375 126 107 90
-1.78524 -1.17939  3.45484 91 69 48
-1.52256 -1.42656  3.67621 122 103 89
 -1.16334 -0.176076   3.52532 124 97 68
 -0.79797 -0.444603   3.53244 103 77 54
 -1.49661 -0.980317   3.49377 101 84 68
-1.52813 -2.26273   4.2856 113 96 86
-0.973516  -0.34901   3.58291 75 48 37
 -1.35324 -0.794977   3.57904 82 63 48
-1.31663 -1.24455  3.64668 110 92 72
-1.89713 -1.70588  3.20717 95 67 43
 -1.54356 -0.805443   3.49657 91 70 53
-0.509592 -0.626307   3.59533 122 94 72
-1.54553 -2.24141  4.24111 112 95 79
 -1.38676 -0.437443   3.62007 109 82 61
-1.64918 -1.36678  3.58822 123 106 90
-0.975636  -1.52826   3.84274 133 107 82
-0.634453   -0.2764   3.60254 72 53 38
  -1.50297 -0.0294555    3.50996 95 70 48
-0.929801  -1.01649   3.50361 111 80 52
-1.57129 -1.39987  3.62843 123 102 85
-0.382739 -0.351431   3.76866 117 98 84
 -1.5868 -2.21599  4.18774 114 101 85
 -1.51277 -0.652739   3.56918 88 69 54
-1.88195 -1.89706  3.30506 144 114 88
-1.63572 -1.16895  3.49011 110 85 63
-0.447908 -0.645277   3.63041 93 70 52
-2.00089 -1.42622  3.25944 84 68 53
-1.79666 -1.57586  3.25444 89 63 40
-0.704752  -1.25063   3.74747 110 84 61
-0.986746 -0.495353   3.55156 71 53 39
-1.77525 -1.09852  3.43722 100 80 56
-1.75021 -1.47421  3.51066 115 106 99
-1.21174 -1.45009  3.79876 113 88 68
-0.283913  -1.26082   3.95902 107 86 67
 -1.47161 -0.149934   3.57405 86 65 48
-1.35999  -1.4855  3.78876 107 81 56
-1.91566 -1.79204  3.22405 145 115 89
-5.79688 -4.95347  9.82395 203 202 200
-1.61649  -1.0135  3.45861 101 78 60
-1.26075 -1.48761  3.81993 128 109 92
  -1.19798 -0.0976712    3.48608 94 66 44
 -1.46988 -0.893094   3.52356 73 55 41
 -1.57613 -0.782574    3.4897 96 75 58
-0.956475  -1.02452   3.51028 145 115 91
-1.84098 -1.17366  3.44417 91 65 42
  -1.2448 -0.520241    3.7012 79 70 65
-0.543748 -0.675253   3.56032 108 99 84
 -1.58065 -0.905663   3.46698 121 91 67
   -1.5388 -0.0191418    3.49231 95 73 52
 -1.8409 -0.75432  3.47076 101 80 63
-1.03125 -1.26682  3.68486 98 72 49
-0.858729  -1.00167   3.48338 109 82 55
-0.476346  -0.88626   3.60509 107 79 55
 -1.51059 -0.323038   3.63203 82 55 34
-1.52346 -0.69689  3.55962 86 70 57
-0.813235  -1.24764   3.71971 74 56 42
  -1.57049 -0.0183003    3.47244 95 73 52
-0.378495 -0.534126   3.71119 81 58 42
 -1.4998 -2.26837  4.29109 110 93 75
 -1.2676 -1.10786  3.58606 93 71 48
-1.93889 -1.67009  3.18602 96 69 48
 -1.50745 -0.855914   3.50179 72 51 34
-1.95556 -1.77027  3.18495 150 121 91
 -1.74228 -0.764356   3.47568 96 70 53
-3.56143 -5.54767  10.4806 209 208 206
 -1.89537 -0.956773   3.41895 98 70 48
   -1.4547 -0.0246198    3.54415 88 63 43
-0.618303  -1.25282   3.80919 101 87 76
 -1.68344 -0.717424   3.50832 110 87 73
-0.597457 -0.897131   3.54335 103 75 53
-0.780541  -1.28578    3.7456 108 80 56
-1.67762 -2.75356  10.8276 202 202 202
-1.19825 -1.15265  3.61409 113 86 67
-0.75134 -1.59264  3.93608 131 106 84
-0.707216 -0.729918   3.47776 103 82 63
-2.13083 -5.69063  10.9019 212 211 209
-0.968764  -1.22605   3.68033 111 93 79
 -1.7127 -1.16455  3.46476 103 75 53
-0.640723 -0.244582   3.61627 49 32 22
-1.64538  -2.1782  4.11338 82 61 42
-0.970046   -1.3113   3.70914 124 103 82
 -1.49102 -0.522241   3.60329 85 64 45
-0.869443  -0.48355   3.52533 105 86 71
-2.15864 -1.17076  3.53077 103 81 60
-1.92193 -1.73561  3.20631 148 122 95
 -1.54854 -0.683067   3.56124 112 96 83
 -1.52681 -0.181268   3.56427 109 90 73
-0.524682  -1.14882   3.75503 108 85 67
-1.68992  -1.2648  3.51004 102 76 53
-2.00237 -1.40799  3.27574 112 99 90
-1.91621 -1.61456  3.18845 147 117 91
-0.558845 -0.920247   3.56575 106 76 50
 -1.45374 -0.136981   3.57989 105 88 70
-1.18106 -1.31931  3.69391 123 102 85
-3.07785 -1.69859  4.13507 192 191 189
-2.10864 -5.15768  10.8431 211 210 208
-0.483621  -1.26094   3.85057 120 98 84
  -0.51298 -0.0118486    3.83109 79 61 49
 -1.60924 -0.844497   3.46899 92 71 54
 -1.47941 -0.689796   3.56672 96 77 60
-1.17023 -1.22046  3.64551 116 83 66
 -1.89673 -0.640133   3.55602 93 75 61
-2.15688  -1.0383  3.51964 93 67 50
-0.580627 -0.925902   3.55664 129 101 79
 -1.44969 -0.382598   3.62294 99 72 51
-0.621526 -0.378406   3.58452 107 93 82
-1.91601  -1.5763  3.19048 101 73 49
 -1.54955 -0.239579   3.60557 106 87 72
 2.18102 -2.95032  10.7709 196 195 193
 -1.23049 -0.180182   3.56798 83 67 51
-2.09848 -1.10353  3.48703 94 67 50
-1.12819 -1.38847  3.74618 102 81 64
-0.957869  -1.35821   3.73294 140 112 88
-0.951271 -0.457887   3.53229 76 53 35
-0.450276  -1.20241   3.80467 108 78 50
 -1.57837 -0.809933    3.4825 125 111 100
 -1.32622 -0.269184   3.68404 96 85 81
 -1.58925 -0.189833   3.53417 85 60 40
-0.813882 -0.393593   3.54646 62 46 30
-0.297322  -1.02632   3.80678 99 80 65
-0.472028  -1.23056   3.83162 133 103 77
 -1.46189 -0.727237   3.55841 109 88 71
 -1.63816 -0.572935   3.61742 71 57 46
-1.90777 -1.74437  3.21854 137 111 86
-0.874743 -0.260479   3.59714 86 64 43
-1.25193 -1.00839  3.58909 83 61 40
-1.13604 -1.36076  3.71995 98 75 59
 -1.61904 -0.129432   3.47523 118 88 64
-1.08584 -1.38157  3.74475 114 87 58
-0.868821  -1.26391   3.70531 85 64 45
-0.290333 -0.705372   3.74874 109 88 71
-0.520853 -0.395411   3.62405 66 48 34
-0.818893  -1.05714   3.52929 114 84 58
  -1.3555 -0.879897   3.57172 98 71 52
 -1.71148 -0.956641   3.42921 105 76 58
-0.758478  -1.05815    3.5399 113 82 54
-0.358557 -0.671232    3.6922 106 93 85
-1.24041 -0.70669  3.65468 106 91 88
  -1.54163 -0.0432903    3.49174 81 56 36
-1.68933 -1.42847  3.59035 95 84 80
-1.92188 -1.09884  3.43037 113 85 63
 -1.56606 -0.331255   3.64762 83 60 46
 -0.993133 -0.0522955    3.52007 90 69 52
-0.584762 -0.501983   3.56257 96 70 55
-0.594627 -0.456224   3.54416 101 75 52
-1.25562 -1.35949  3.70605 117 86 58
-0.689431  -1.49646   3.86567 119 92 65
-1.23114 -1.05924  3.59793 81 56 36
-1.98321 -1.20934   3.4711 101 82 68
 -1.6014 -0.86322  3.46691 112 91 74
-0.998037  -1.40626   3.75325 97 75 54
-0.956856 -0.314942   3.58362 90 64 49
  -1.61417 -0.0995893    3.47102 93 63 39
-0.442603  -1.43849   3.96067 103 79 55
 -1.54859 -0.304561   3.63789 84 58 41
 -1.36947 -0.950655   3.56449 101 82 67
 -1.55143 -0.702215    3.5464 71 52 35
-0.406362 -0.723087   3.65066 98 70 59
-0.818559  -1.09737   3.56286 112 81 53
 -1.6436 -1.70002   3.6131 87 61 38
 -1.58477 -0.291958   3.63993 88 71 55
  -1.57516 -0.0777829    3.48187 79 54 34
-0.628753 -0.900844   3.53119 113 88 68
 -1.84061 -0.821256   3.44973 107 80 59
-1.63896 -1.55504  3.59044 59 42 24
-1.87945 -1.57476  3.19903 115 87 63
 -0.838806 -0.0627647    3.62106 71 49 35
-1.04386 -1.21659  3.66089 101 74 53
 -1.54261 -0.279283   3.62746 96 71 51
-1.91377 -1.25867  3.48372 106 96 87
 -1.36866 -0.667709   3.59331 90 72 60
 -1.12378 -0.207082   3.53507 106 80 55
-1.19773 -1.21136  3.64172 125 103 82
-1.62454 -2.18091  4.14047 110 96 85
-0.738591 -0.634011   3.49264 118 90 68
-1.48531  -2.3456  4.39526 116 106 96
-2.11686 -1.15907  3.50081 81 58 40
   -1.994 -0.920652   3.44174 114 86 65
-0.379782 -0.617156   3.68757 109 86 68
-0.285689 -0.925029    3.7918 98 79 62
 -1.21154 -0.281218   3.71197 93 84 77
-1.61099 -1.32588   3.5674 99 78 57
-2.11294 -1.63277  3.20603 101 80 61
  -1.58829 -0.0331791    3.46007 104 79 59
 -0.56104 -0.488474   3.57295 111 83 61
 -1.9376 -1.54166  3.19537 113 85 61
-0.770233  -1.45786   3.81425 104 79 59
 -1.38257 -0.779076   3.56802 104 83 66
 -0.527127 -0.0477361    3.79798 68 50 36
-2.07969 -1.01863  3.47478 117 89 68
  -1.0077 -0.331809    3.5932 98 79 64
  -1.75372 -0.0929415    3.45834 126 96 72
-0.744469 -0.902368   3.48985 99 71 49
-2.00865 -1.01613  3.44403 98 70 48
  -0.95051 -0.0238218    3.55235 87 66 49
 -1.26436 -0.435265   3.71166 85 76 69
  -1.48102 -0.0997717    3.54502 82 57 37
-0.448824 -0.085192    3.8486 94 73 54
-0.817976  -1.26395   3.72338 122 96 79
-1.88626 -1.24965   3.4755 80 61 46
 -1.46176 -0.128594   3.56638 74 53 32
-0.594253 -0.281011    3.6185 79 60 45
 -1.79705 -0.920329   3.41298 123 94 76
-1.30358 -1.14201  3.60045 109 84 64
 -1.88456 -0.710078   3.50815 90 69 52
-2.01952 -1.13269  3.46229 113 88 68
-0.799993  -1.39992   3.77644 102 80 59
-1.28536  -1.1437  3.60054 130 109 88
-0.431143 -0.365911   3.71749 87 70 52
 -2.04644 -0.933271   3.46096 121 93 72
-1.11222 -1.41446  3.76282 101 80 61
-0.859987  -1.57561   3.90483 124 94 68
  -1.59814 -0.0750562     3.4665 113 82 61
-1.26667 -2.52539  4.72537 97 78 64
-0.865748 -0.377292   3.55522 113 94 79
  -1.365 -1.09386  3.57787 133 114 99
-0.529682 -0.697468   3.57251 110 91 76
 -1.91261 -0.825337   3.45287 106 80 63
-1.42727  -2.3431  4.47689 107 95 81
 -1.98707 -0.982795   3.42907 108 80 58
  -1.979 -1.53361  3.20062 113 90 74
-0.937546  -1.49004   3.80829 127 100 73
  -1.20973 -0.0651187    3.47981 83 57 32
-1.47702 -1.27403  3.58302 107 77 53
-0.615336  -0.75885   3.51987 98 73 53
-0.835314  -1.03451   3.50272 115 88 61
-1.50461 -1.36642  3.62968 103 78 56
-0.986002 -0.846252    3.4379 103 75 51
-1.37999 -1.43126  3.73388 107 84 66
-0.998536  -1.45228   3.78814 110 89 72
-0.664362 -0.534553   3.53732 91 72 57
 -1.49137 -0.091061   3.53532 105 82 64
-1.67702 -1.29964  3.52722 93 65 43
 -1.53604 -0.326582   3.63439 99 73 56
  -1.9707 -0.906592   3.43694 86 58 37
-1.34439 -1.30139  3.66362 109 90 75
-1.60814 -1.45988  3.66403 116 105 101
-1.98731 -1.83748  3.21736 124 94 66
 -1.05264 -0.353646    3.6227 64 46 32
 -1.20572 -0.970767   3.59773 109 97 81
 -1.50039 -0.836273    3.5113 98 82 69
-0.421009  -1.06104   3.74248 114 89 69
-1.17628 -1.19234  3.63966 105 84 67
-0.918053 -0.884111   3.44818 120 90 62
-0.867812 -0.444644   3.53566 107 76 58
-1.14885 -1.28022  3.66623 106 80 63
-1.26197 -2.68825  4.76571 118 105 89
-0.756773 -0.305738   3.57276 75 57 37
-1.44919  -1.4721  3.74147 124 98 75
-0.947142 -0.429786   3.53836 97 72 52
 -1.00742 -0.728833   3.47842 63 44 29
 -1.06298 -0.989534   3.53216 113 91 70
 -1.90784 -0.862068   3.43403 80 55 33
-0.609391 -0.957819   3.55077 98 70 48
-0.473566 -0.301747   3.68123 90 67 51
-1.14613 -1.32291  3.70401 101 76 56
 -1.18275 -0.054446   3.47571 87 61 38
 -1.33315 -0.521086   3.63079 89 68 51
-0.798725  -1.42447   3.78665 107 79 58
-1.96078 -1.12316  3.43232 98 70 48
-0.338578 -0.872201   3.73961 134 121 105
-1.74983 -1.92182  3.60925 121 108 99
 -1.08349 -0.928645   3.50921 113 86 65
 -0.555905 -0.0170148    3.79736 77 59 47
-0.950026  -1.37863   3.74391 109 83 60
  -1.55802 -0.0940933    3.49333 80 58 37
 -1.24018 -0.659489   3.66493 95 86 79
 -0.576928 -0.0842959     3.7841 84 70 57
 -1.29408 -0.732016   3.61487 83 65 53
-1.49517 -1.09164  3.51245 89 66 48
-0.299693  -1.12562   3.82977 114 84 60
-0.622475 -0.990068   3.55322 121 91 65
-1.30591 -1.08743  3.57827 97 68 50
 -0.823861 -0.0138138    3.63517 66 47 32
 -1.27877 -0.189594   3.59621 114 88 65
 -1.19582 -0.417651    3.7333 104 95 88
-0.385098  -0.56221   3.69477 103 84 67
 -1.72639 -0.651492   3.53308 59 40 26
-0.515393 -0.260573   3.68808 62 44 30
-1.03084 -1.42279  3.76162 101 73 49
-1.67251 -1.42346  3.60041 108 99 94
 -1.51776 -0.627636   3.58358 105 82 66
-0.926587 -0.446619   3.53944 102 71 51
 -1.84265 -0.655506   3.53626 58 40 26
 -1.02118 -0.720274   3.47585 92 73 58
-1.70767 -1.10089  3.44853 111 86 66
-1.69354 -1.17373  3.47051 123 95 73
-0.891318  -1.06894   3.54396 131 101 75
 -1.17772 -0.213743   3.58205 112 90 69
-1.79209 -1.05302  3.41833 101 73 52
 -1.65958 -0.181129   3.48584 102 74 52
 -0.990505 -0.0755164    3.52657 72 49 31
-0.85988 -1.23893  3.71151 87 70 54
 -1.7184 -1.43131  3.57743 91 82 73
-0.635497  -1.39363   3.82827 119 93 70
-1.76121 -1.06974   3.4275 122 92 68
-0.793613 -0.750929   3.47225 118 90 68
-1.02843  -1.4932  3.81935 98 70 46
-1.3381 -1.1289 3.59243 107 82 62
-0.899566 -0.482998   3.52342 89 70 53
-0.938501 -0.480839   3.53078 78 59 44
-0.348232 -0.395669   3.78322 89 68 51
-1.18136  -1.2376   3.6544 106 79 60
-2.10278 -1.02197  3.48453 93 71 50
-1.20079 -1.06999  3.60402 117 89 67
 -1.11424 -0.415294   3.67456 90 74 61
  -1.4543 -0.910755   3.53324 111 85 68
-0.397246 -0.755986   3.65742 100 78 57
-0.629613 -0.497314   3.54809 92 64 50
-0.777671 -0.097971   3.67685 100 73 54
-1.23426 -0.11929  3.51816 123 93 69
-0.785336  -1.60421   3.93745 113 83 57
-1.57509 -1.33849  3.58574 97 80 60
  -0.667528 -0.00478264     3.74168 66 47 30
 -0.965903 -0.0358747    3.53988 66 45 28
  -1.29214 -0.0620962    3.52648 71 50 33
-1.12476 -1.22368  3.65223 99 77 53
  -1.51732 -0.0550114    3.50664 82 57 37
-1.41935 -2.27571  4.34754 112 95 79
 -1.18835 -0.212558   3.57753 88 71 55
-1.41687 -2.30347  4.46079 107 90 72
 -1.52931 -0.264571   3.62433 127 108 93
-1.59943 -1.11229  3.48949 134 116 102
-0.586176 -0.942001   3.55761 99 71 49
-0.749395  -1.28232   3.74144 108 80 58
-1.04665 -1.38668  3.74148 102 72 48
-0.823521   -1.4592   3.80696 106 85 64
-0.595131 -0.772599   3.52925 112 89 71
-0.866839  -1.05769   3.52747 116 89 62
 -1.98013 -0.955004    3.4215 96 68 47
 -1.03167 -0.480634   3.58991 83 66 56
-1.91878 -1.67277  3.19065 117 89 65
-0.681622 -0.207726   3.63866 53 43 34
 -1.56154 -0.289268   3.63636 114 91 73
  -1.3965 -0.756533   3.56598 112 87 67
-0.547931   -1.0089   3.61581 117 87 61
-0.945789         0   3.55624 86 65 48
-2.10752 -1.52133   3.2236 120 90 66
  -1.46606 -0.0488084    3.54185 73 50 32
-0.890745 -0.660485   3.47791 105 86 71
0.0333514 -0.440421   4.26306 107 86 67
 -1.74884 -0.986201    3.4115 123 93 65
-0.85666  -1.4975  3.81452 99 73 48
-1.09062 -1.22305  3.65812 98 68 44
 -1.33462 -0.719085   3.60037 82 66 53
  -0.604162 -0.00830755     3.77105 60 41 26
-1.58558 -1.07611  3.47918 131 112 97
 -1.47942 -0.188419   3.59832 92 71 52
-0.491068  -0.31138   3.67107 75 58 42
-0.450185  -1.00301   3.66491 110 80 56
-0.34154 -1.06263  3.79122 108 89 72
-0.963096 -0.672399    3.4691 73 50 32
-0.990834  -1.38872   3.74581 126 101 79
-1.93158 -1.78633    3.211 116 86 60
-1.10799  -1.4903  3.83105 127 99 77
-0.439984 -0.537557   3.65423 73 54 39
  -1.3386 -0.460549   3.64003 83 61 47
-0.373722 -0.381974   3.77909 108 92 76
-0.516293  -1.08542   3.67648 111 89 68
 -1.43735 -0.499767   3.59606 111 83 61
-0.856251  -1.02607   3.49758 128 102 75
-0.885457  -1.38649   3.75542 114 86 62
-1.82026 -1.25023  3.46617 80 57 39
-0.588106 -0.652921   3.54539 98 79 62
 -0.67444 -0.949196   3.51629 109 82 61
-0.957909 -0.155381   3.57254 83 58 38
-1.71422  -1.6653  3.50126 94 72 51
 -1.7118 -1.71218  3.52558 98 76 53
 -1.53143 -0.627756   3.58213 81 62 48
-1.16125  -1.3029  3.69059 111 86 66
-1.68997 -1.44217  3.58799 109 96 90
-0.989522  -1.27827   3.69549 113 85 64
   -1.2927 -0.0869643    3.53728 83 60 42
  -1.0285 -0.070818   3.50271 96 71 51
-0.705044 -0.514438    3.5248 93 70 52
-1.54052 -1.16068  3.52283 128 96 75
-1.14926 -1.05012  3.60873 128 103 83
-1.06676 -1.22796  3.66513 117 87 63
 -1.50977 -0.894354   3.49897 101 77 53
-0.363538 -0.367505   3.77951 90 71 56
 -0.878792 -0.0613007    3.60397 71 45 30
-0.787881 -0.641481   3.49897 98 77 60
  -1.3494 -0.936538   3.56766 125 100 78
-0.712139  -1.58652   3.93466 130 108 85
 -1.39302 -0.575576   3.59037 83 58 36
 -1.61722 -0.200321   3.54725 100 73 54
-0.488161  -1.42663   3.92906 109 87 73
-1.46604 -1.09678  3.53424 86 68 48
-1.29534 -2.53171  4.68938 116 100 85
 -1.50322 -0.170474   3.57188 95 69 52
-0.637279 -0.877947   3.52219 96 70 47
-1.05934 -1.41543  3.75683 120 92 68
   -1.6621 -0.0650524    3.43034 124 97 76
-0.907651 -0.649018   3.48077 88 63 43
-1.87866 -1.66304  3.21091 128 100 76
-1.44173  -1.3432  3.64503 116 91 61
 -0.880934 -0.0122795    3.59645 63 42 25
   -1.488 -0.867886   3.51262 100 79 60
-0.702062  -1.39698   3.80335 111 81 57
-0.952161 -0.985338   3.47988 101 71 47
 -1.8166 -1.81989  3.39157 108 87 70
-1.61567  -2.3087    4.176 116 89 68
-0.506082 -0.716039   3.58033 109 88 71
-1.34769 -1.11357   3.5851 124 106 92
 -1.30721 -0.232605   3.66503 107 96 90
 -1.31741 -0.618209   3.62047 100 74 57
-1.41142  -0.2609  3.64201 108 89 75
-0.911096  -1.24717   3.70303 117 95 72
 -1.57758 -0.212063   3.56939 111 92 75
-0.917444  -1.59175   3.92693 111 81 55
 -1.49157 -0.260751   3.62389 94 73 52
-1.30765 -1.11702  3.58301 99 74 54
-1.32242 -1.46871  3.78654 104 82 59
-1.76191 -1.67056  3.42455 99 74 52
-0.477546  -1.35525   3.90949 122 106 90
-0.476056  -1.49357   3.97504 123 95 71
 -1.18768 -0.913357   3.59845 133 126 118
-0.84504 -1.01564  3.49845 111 84 57
-1.82516 -1.15059  3.44114 93 72 45
 -1.46541 -0.520204   3.59426 97 75 52
-0.611437  -1.45959   3.86878 104 79 57
-0.581293  -1.32597   3.82969 116 89 68
-1.23639 -1.44091   3.7927 124 98 75
-0.934454 -0.853752   3.43711 131 101 77
-1.87953 -1.68646  3.20944 101 73 49
    -1.55 -0.176055   3.54718 87 66 49
-1.12053 -1.50777  3.84316 100 72 50
-0.801712  -1.54697   3.86822 105 77 55
-1.04222 -1.16576   3.6466 118 90 68
-0.574912  -1.48126   3.90213 105 87 65
 -1.06091 -0.959909   3.51396 94 66 44
 -1.23632 -0.222393   3.63689 81 62 45
-1.24774  -1.2565  3.65448 115 88 69
-0.83234 -1.60732  3.93657 128 98 72
 -1.18142 -0.385088   3.72302 103 93 84
-1.09268 -0.86576  3.50205 105 80 60
-1.84314 -0.76991  3.46475 69 48 31
-1.52621 -1.12878  3.51527 123 95 71
-1.96594 -1.78697  3.19398 119 89 61
-1.65975 -2.30172  4.14633 110 80 56
 -1.56361 -0.804204   3.49309 101 82 67
-1.96917 -1.52127  3.20075 94 67 48
-0.980099  -1.21399   3.67673 125 105 78
 -1.4265 -1.52488  3.80688 97 72 50
  -1.3778 -0.499399    3.6117 88 60 39
 -1.42831 -0.676412   3.57205 99 77 56
 -1.34335 -0.364648    3.6708 50 38 24
-1.90953 -1.89944  3.27335 114 83 55
-1.76506 -1.02252  3.41119 118 88 64
 -1.55698 -0.781315   3.49762 112 87 67
 -1.91354 -0.932013   3.41764 86 64 41
-2.07972 -1.03878  3.47692 100 75 55
-0.469402 -0.373871   3.67826 99 82 66
 -1.42264 -0.169498   3.61008 108 86 65
-0.621436  -1.40162   3.83347 99 71 47
  -1.0326 -0.968213   3.49287 116 88 64
-0.599263  -1.39298    3.8408 116 88 64
-1.13247 -1.26403  3.66848 130 103 82
 -0.69345 -0.226556   3.63317 40 27 18
 -1.56719 -0.227658   3.58921 119 105 92
-0.830273  -1.27529   3.72463 94 68 51
 -1.01627 -0.951279   3.47234 101 74 47
 -1.36942 -0.648973   3.59441 115 92 78
-0.446187  -1.35622   3.92514 104 82 59
-0.269064  -1.27194   3.99048 129 98 77
-1.65066  -1.1541  3.47799 126 101 81
 -1.34763 -0.775376    3.5754 107 88 73
-0.601722 -0.940165   3.54743 119 91 70
-1.15094 -1.35864  3.72288 107 85 71
-1.00625 -1.23494  3.67557 102 80 59
-1.82608 -1.27183  3.48324 91 70 53
-1.79667 -1.20045  3.45149 120 94 71
 -1.22625 -0.524051   3.71253 98 89 84
  -1.19879 -0.0550814     3.4805 102 81 60
-1.07736 -1.12366  3.63803 126 95 75
-1.87498 -2.04682   3.4248 122 90 65
 -1.91574 -0.791109   3.45926 95 69 52
-1.67077  -1.4095  3.60216 135 122 114
-2.08696 -1.39978  3.30545 67 49 35
 0.523936 0.0762263   4.24486 203 202 200
-1.16242 -1.22026  3.65193 108 81 64
-0.963137  -1.54336   3.86022 101 75 50
 -0.853577 -0.0128844    3.60979 69 48 31
-0.820719  -1.54839   3.85634 108 81 54
-1.43215 -0.27708  3.63237 101 79 65
-0.686132   -1.0751   3.57558 114 83 55
 -1.95258 -0.796658   3.47119 76 55 36
-0.686988 -0.646249   3.49753 113 86 65
-0.637275  -1.33469   3.79587 120 90 66
  -1.02354 -0.0862117    3.50794 88 61 42
-0.916923 -0.997635   3.48239 128 97 69
 -1.21072 -0.111155   3.49732 119 92 65
-0.749775   -1.6109   3.95211 109 81 57
 -1.38097 -0.592982   3.59416 101 80 61
-0.271344 -0.910172     3.802 119 93 70
-1.09279 -1.40311  3.75023 122 96 69
-1.34652  -1.4781  3.78498 103 81 58
-1.61847 -0.18014  3.52176 102 74 52
-1.32923 -1.06095  3.56559 117 93 69
-1.54976 -0.17795  3.54835 87 66 49
-0.730509  -1.07012   3.55437 124 93 65
 -1.19863 -0.346605   3.73797 99 92 86
-2.01681 -1.15442  3.46382 83 64 47
-1.6517 -1.5583 3.57393 73 56 46
 -1.1562 -1.57162  3.96781 109 83 60
 -1.40964 -0.281468   3.64964 74 55 41
 -1.74227 -0.117383   3.46115 100 70 44
-0.987256 -0.365675   3.57397 70 47 31
-2.00258 -1.66005  3.17734 126 96 72
-2.01864 -1.39684  3.29434 81 67 54
-1.32908 -1.40909   3.7383 114 100 87
-2.00428 -0.97641  3.43586 113 85 63
 -1.25926 -0.196044   3.59575 89 70 53
-1.21253 -1.20461  3.63692 104 79 57
-0.743475  -1.09565   3.57502 116 85 57
  -1.41189 -0.0087623    3.58028 77 64 56
-1.46487   -0.537  3.59264 100 79 58
-1.02486 -1.00409  3.51569 119 91 67
-1.22972 -1.26649  3.66351 122 92 68
 -1.45507 -0.220225   3.61972 112 89 73
-1.78404 -1.80269  3.49889 118 108 98
-1.20467 -1.01798  3.60138 97 84 75
-1.11467 -1.28709  3.68141 102 74 50
-1.96171 -1.68646  3.18799 117 89 67
-0.884907  -1.21883   3.69982 98 75 57
-0.382787 -0.714232   3.66416 106 78 56
 -1.92142 -0.895288    3.4244 78 56 33
 -1.60517 -0.976084   3.45737 121 100 83
 -2.01711 -0.920878   3.44583 91 63 42
-1.72409 -1.62348  3.46228 106 89 73
-0.55998 -1.53951  3.94789 129 99 75
 -1.59975 -0.962479   3.46577 107 81 58
 -1.40256 -0.600864   3.59201 100 83 65
-0.535636   -0.5843   3.58561 117 101 88
-1.26852 -1.14115  3.60268 107 82 60
 -1.07794 -0.854233   3.48849 89 64 44
 -1.36117 -0.582327    3.6003 97 71 54
 -1.66691 -0.622016   3.57403 81 65 52
-0.757488  -1.47149   3.82732 119 92 63
-0.804855 -0.278414   3.58363 76 58 44
-0.883796 -0.288131   3.58533 85 67 53
-0.80393 -1.06046  3.53667 136 105 77
-0.782548  -1.33655   3.75381 102 74 50
-0.899133  -1.33889   3.72991 115 85 59
 -1.01115 -0.691087   3.48237 69 50 35
-1.62757 -1.26077  3.53177 104 79 59
 -1.7293 -1.31831  3.52961 97 78 63
-0.967135 -0.935488   3.45341 105 75 49
 -1.70626 -0.638027   3.53909 76 60 47
-1.54926 -1.14134  3.50887 112 85 58
-0.792708 -0.300096   3.57466 74 57 39
-1.03049 -1.47463  3.79749 118 90 66
-0.834025 -0.543847   3.51151 115 102 93
-1.70474 -1.39195  3.58277 118 109 102
 -1.64471 -0.222573   3.57959 81 58 44
0.0135104 -0.529137   4.32583 124 115 108
-0.448745 -0.978723   3.65133 114 83 62
-1.50239 -2.14759  4.30764 65 51 40
  -1.8337 -0.740733   3.47817 72 51 34
-0.783614 -0.273401   3.59345 61 43 29
   -1.068 -0.780195   3.47801 99 76 58
-1.43109 -1.08416  3.55643 95 78 60
-1.94396  -1.2181  3.47196 84 64 53
-1.61278 -1.25351  3.53034 120 98 77
 -0.75423 -0.953061   3.49677 109 83 60
 -1.6298 -1.66904  3.61744 83 62 41
  -0.89427 -0.0405792    3.58986 60 42 28
-1.27415 -1.15798  3.61035 112 91 70
-0.609225  -1.20216   3.78693 127 110 100
 -1.54573 -0.208434   3.58479 105 86 71
-1.22481 -1.04433  3.59591 98 77 60
 -1.73205 -0.921468   3.42755 109 83 66
-0.992701  -1.24043   3.67455 124 97 78
-1.47445 -1.52235  3.78534 100 77 59
-1.08945  -0.5762  3.60057 89 73 58
-0.840905 -0.399428   3.54718 69 50 35
-1.0997 -1.3355 3.71306 99 71 47
  -1.76247 -0.0685468    3.44342 111 84 57
-1.63686 -2.09462   4.1328 52 39 30
  -1.64277 -0.0950959    3.45528 118 88 62
 -1.21436 -0.612823   3.68763 121 114 108
-1.85663 -1.33424  3.49237 102 95 87
-0.618873 -0.568658   3.54725 114 97 81
 -1.3974 -1.23112   3.6027 125 106 89
 -1.82764 -0.754376   3.47749 87 66 49
-0.64481  -0.7655  3.49371 102 77 55
  -0.633894 -0.00099759     3.76408 72 55 39
-1.67081 -1.39349  3.59672 115 101 92
-1.42487 -2.36794   4.4509 118 108 98
-1.90548 -1.79411  3.23512 107 77 51
-0.636797  -1.57269   3.93959 111 84 57
-0.947519 -0.368794   3.56719 96 70 47
  -1.7278 -0.123452   3.45899 117 87 61
-0.392372  -1.04918   3.76098 113 93 68
 -1.71437 -0.748904    3.4756 98 70 49
 -1.94282 -0.948835   3.42801 91 66 44
 -1.29378 -0.359529    3.7015 52 42 33
-1.89196 -1.46295  3.22571 84 63 44
 -1.88423 -0.826819   3.43923 81 55 38
-0.846023 -0.891327   3.45196 111 84 63
-0.574226  -1.41244   3.86607 121 93 69
-0.22646 -1.01073  3.86282 105 79 56
 -1.82215 -0.741357    3.4843 74 53 36
 -1.33818 -0.758752   3.58478 99 81 69
-1.48927 -2.18168  4.28427 64 50 39
-1.82822 -1.35801  3.52003 117 114 107
 -1.59084 -0.702869   3.52559 95 67 53
-0.531327 -0.529267   3.59745 100 81 67
-1.31877 -1.29199  3.66582 127 104 86
-1.94591 -1.75239  3.18436 125 95 67
-2.04383 -1.18486  3.48535 78 61 43
-0.863856 -0.318595   3.57084 82 64 50
 -1.44912 -0.270361   3.63289 82 61 44
 -1.82839 -0.930923   3.40896 118 90 68
 -1.21528 -0.553727   3.70268 114 105 100
-0.523726  -1.13006   3.74011 126 110 97
-0.936782  -0.97332   3.47342 115 85 59
-1.53905 -1.37889  3.64889 101 76 56
-0.895772  -0.58188   3.49414 118 93 71
-1.88318 -1.32383  3.50474 108 101 93
-1.71142 -1.84535   3.6413 108 89 75
-0.708222 -0.977767    3.5079 112 84 60
-1.45419 -2.35998  4.42574 110 102 91
-1.38615 -1.35134  3.67709 101 76 54
-2.03301 -1.13376  3.46406 90 65 45
 -1.55886 -0.585315   3.59717 98 79 65
-1.05512 -1.02137  3.54413 107 82 60
-1.73415 -1.30303  3.51797 86 65 48
-0.850781  -1.44573   3.79293 114 83 55
-0.950292   -0.6124   3.48936 93 66 49
-1.30569 -2.67191   4.6784 90 76 63
-1.63797 -1.38037  3.59385 129 107 93
-1.12784 -1.43073  3.77576 127 110 94
 -1.4853 -1.29557  3.59558 106 80 53
-0.878363   -1.5242   3.84706 119 88 60
-2.01497 -1.10876  3.45179 92 64 42
-0.162529 0.0679308   3.75605 174 171 166
-1.29019 -2.33613  4.53086 123 107 92
-3.38192 -1.47025  8.63269 114 88 65
 -0.963211 -0.0115335    3.54546 66 45 28
  -1.45341 -0.0827231    3.55783 76 54 40
-2.11885 -1.25309  3.53068 87 73 60
-1.42832 -2.41121  4.48865 112 98 85
-0.850385  -1.46836   3.80461 108 77 49
-0.804595 -0.377761   3.54702 71 52 37
  -1.0028 -0.887447   3.45306 124 94 70
-1.48461 -1.02105  3.50585 103 89 78
 -2.0875 -1.46467  3.24978 111 81 57
-0.800058  -1.35673   3.75646 103 76 55
 -1.40108 -0.390729   3.62914 62 43 28
 -1.72848 -0.888404   3.42901 126 109 99
-1.94981 -1.78553  3.20521 137 107 79
-1.66743 -1.68272   3.5749 91 66 44
-1.55873  -2.3793  4.25527 105 82 64
-2.00813  -1.2894  3.48816 74 64 54
-1.22331 -2.37652  4.65245 118 97 78
-0.654882 -0.928672   3.53063 97 72 52
 -1.58829 -0.202558   3.55769 85 63 42
-8.32246 -6.15325  13.3476 200 199 197
 -1.20157 -0.225257   3.61059 88 65 47
-0.347054  -1.25627   3.91584 118 94 68
-0.736333 -0.354745   3.56011 105 87 73
-0.511125 -0.952464     3.599 111 81 57
-2.01218 -1.17559  3.47144 89 70 53
 -1.59804 -0.941635   3.45681 101 75 50
-0.493011  -1.46815   3.94237 102 80 56
-1.96265 -1.76206  3.18234 122 92 64
-0.869316  -1.60196   3.91632 110 80 54
-1.40393 -1.46936  3.75411 101 76 56
-1.31386 -1.10363  3.58081 115 90 70
  -1.0778 -0.166902   3.51661 119 92 63
-1.72259 -1.41682   3.5767 135 128 120
-1.63883 -1.20302  3.50043 122 94 70
 -1.36315 -0.548832   3.60068 98 73 53
 -1.70935 -0.850724    3.4475 129 116 107
-0.991879 -0.535962   3.53095 87 64 46
 -1.33808 -0.104241   3.56405 109 77 56
 -1.82403 -0.992267    3.4079 117 87 63
-1.90595 -1.07745  3.43023 116 86 62
  -1.4132 -0.532734   3.59438 98 72 49
 -1.46974 -0.947084   3.51188 113 88 68
-1.40785 -1.18738  3.58498 124 105 91
 -1.05425 -0.075958   3.49534 95 64 43
-1.60884 -1.26898  3.54439 106 81 59
 -1.54986 -0.618074    3.5933 109 91 81
-1.95494 -1.01733   3.4269 109 82 55
 -1.26225 -0.108182   3.52558 109 81 59
-0.932243  -1.42938   3.76709 111 83 61
-1.99471 -1.87707  3.24297 145 114 86
-0.649735   -1.0047   3.54825 114 84 58
 -1.241 -2.5687 4.78357 109 88 71
-1.54295 -1.11634  3.50217 110 83 56
-0.899029  -1.21512   3.69658 113 90 72
-1.48688 -1.60609  3.89155 106 90 75
-1.04771 -1.14989   3.6307 88 65 47
-0.308194  -1.30225    3.9848 116 91 69
  -1.1269 -0.219845   3.57192 101 76 54
-0.773242  -1.64077   4.00034 125 95 69
  -1.6849 -0.607338   3.57766 66 50 37
-0.682162  -1.28107   3.76446 103 76 59
 -1.84959 -0.894351   3.41572 96 68 47
-0.585767  -1.43617   3.87758 104 76 55
-1.44605 -1.20435   3.5649 107 79 57
-0.840764  -1.52826   3.84327 104 77 48
-0.676277  -1.21457   3.76415 106 79 58
-0.716718 -0.778363   3.49084 128 112 99
-0.944314 -0.135529   3.56127 90 62 40
  -1.75353 -0.0623929    3.44641 100 72 48
 -1.89596 -0.675836   3.53534 84 63 46
 -1.42447 -0.733405   3.56446 101 76 56
-1.99962 -1.19596  3.46957 91 69 55
-0.734113 -0.331725   3.55339 88 69 54
  -0.70388 -0.0120412    3.70816 89 72 54
-0.993283 -0.744106   3.46384 84 63 44
 -0.550692 -0.0588666    3.79298 80 63 47
-0.913684  -1.49777   3.82498 106 79 52
-1.45981 -2.42192  4.45658 132 123 116
-1.44189 -1.36463  3.65251 106 80 57
-1.68907 -1.70339  3.55255 107 79 55
-0.470195 -0.044131   3.84171 72 50 36
-0.970501 -0.819161   3.43097 103 73 49
 -1.42927 -0.916231   3.54975 131 121 112
-0.684062 -0.529492   3.52464 113 92 75
-0.600905 -0.742686   3.51904 116 88 64
 -0.862971 -0.0706033    3.60718 86 60 43
-1.33477 -1.49238  3.80801 115 87 63
-1.98738 -1.89126  3.23933 140 109 81
 -2.31364 0.0706423   4.15303 196 195 191
-0.856665 -0.820915    3.4584 135 117 105
-0.839338 -0.634444   3.49341 104 88 75
-1.46575 -1.08095  3.54043 105 82 64
-1.37042 -1.11396  3.58033 119 100 86
-0.763896   -1.2364   3.73229 91 69 55
-0.713328  -1.09821   3.59437 122 90 65
-1.94083 -0.81647  3.45798 95 69 52
-1.17012 -0.23147  3.61384 93 65 43
-1.47121 -1.36988  3.64928 106 84 61
 -1.60481 -0.545709   3.63021 95 85 76
-0.968592 -0.995844   3.48711 117 87 63
 -1.78518 -0.929132   3.41951 95 67 46
0.0586789 0.0674725   4.14966 192 188 185
 -1.40403 -0.201505   3.63276 108 89 75
-1.12404 -1.52981  3.85925 113 85 63
-0.876553 -0.927265   3.45826 101 75 50
 -1.84019 -0.944419   3.39859 108 81 54
-0.860926  -1.22154   3.71428 109 92 76
-1.95873  -1.9175  3.27367 117 87 61
  -1.17892 -0.0989066    3.47929 112 87 67
-1.22856 -1.35386  3.71787 112 87 65
 -1.30703 -0.945371   3.58197 130 122 119
  -1.63583 -0.0754649    3.46009 104 73 52
-1.59654 -1.39569  3.62134 102 79 61
-1.72646 -1.70003   3.5118 107 85 64
-0.576801 -0.617006   3.55631 115 103 89
-0.887944  -1.25652   3.70429 104 82 61
-0.927757 -0.660899   3.47838 95 67 45
 -1.00471 -0.994902   3.49696 108 80 56
-0.973954 -0.685646   3.48113 89 70 55
-0.900818 -0.604477   3.49259 111 85 68
  -1.8276 -0.812269   3.45329 85 60 40
-0.285957 -0.889145   3.77593 114 91 73
 -1.32659 -0.398755   3.67915 51 38 29
 -2.00037 -0.793084   3.49133 77 56 37
-0.588751   -1.2265   3.80379 131 121 112
 -1.35699 -0.601966   3.59639 86 60 43
  -1.27304 -0.0822669    3.50986 101 74 53
-1.41105 -1.03977  3.56294 124 111 102
 -1.68241 -0.581101   3.60711 69 53 40
 -1.09152 -0.802875   3.51058 100 75 55
-0.495027 -0.079538   3.82808 85 68 52
-1.73861  -1.3836  3.55415 125 116 107
-0.547326 -0.638678   3.56984 123 109 100
-1.87657 -1.74113  3.23572 92 66 43
-0.876478  -1.06498    3.5285 138 103 73
-1.07277 -1.40502  3.74641 107 77 49
-0.944983 -0.627698   3.48815 83 56 35
-1.40498 -1.02024  3.55964 118 106 90
 -1.49343 -0.413757   3.61193 84 57 36
-0.653281 -0.889651   3.52186 107 81 58
-0.781074 -0.624628    3.4862 101 75 58
 -1.90573 -0.984806   3.42095 111 94 78
 -1.87681 -0.947315   3.40916 109 81 59
-0.291585  -1.32569   3.98073 114 88 65
 -1.29389 -0.659043    3.6275 85 63 49
 -1.42681 -0.362658   3.61601 80 54 37
-0.913147  -1.46787   3.80354 110 82 60
-1.86578  -1.2909  3.49779 77 61 46
 -0.72694 -0.270908   3.57888 69 50 36
 -1.46373 -0.263394   3.63158 99 74 54
 -1.06537 -0.190333   3.52578 122 91 63
-1.60063 -2.13998  4.15187 71 50 33
-0.804941  -1.30001    3.7321 101 73 51
-1.67119 -1.07251  3.45059 124 97 76
-0.0374018  -0.313765    4.20081 88 69 52
-0.507297 0.0704402   3.66178 169 165 162
 -1.31136 -0.815284   3.59824 88 69 54
 -1.70109 -0.645251   3.54887 62 45 37
 -1.51255 -0.445087   3.61903 78 53 33
 -0.92044 -0.518255   3.50653 91 68 50
-1.76124 -1.18623  3.45986 105 80 60
  -1.2622 -0.667568   3.65109 87 74 66
 -1.84294 -0.973256   3.40305 110 80 54
-0.659977 -0.614999   3.52294 93 68 48
-0.777075 -0.422898   3.54108 85 58 39
-0.906543  -1.03561    3.5058 123 92 64
 -1.8935 -1.64673  3.19962 112 82 56
 -1.25344 -0.956002   3.58566 100 74 57
-1.91081 -1.20494  3.45353 82 61 44
-1.01301  -0.7716  3.45739 94 69 49
 -1.02279 -0.646464    3.5143 69 48 31
 -1.64687 -0.130984   3.46832 112 82 56
 -0.75038 -0.521232   3.51636 108 87 70
-1.49539 -1.28715  3.58951 114 88 61
-0.992033 -0.305714   3.59025 72 49 33
-1.76943  -2.0432    3.518 102 76 53
-1.67838 -1.51817  3.56195 68 49 35
-0.708726  -1.36466   3.76931 100 70 46
-1.94484 -1.26777  3.47227 102 84 70
  -1.4027 -0.379234   3.60435 80 57 41
-0.186812 -0.536406   3.95115 102 74 60
 -1.93866 -0.729085   3.50103 86 65 48
 -1.82726 -0.945648    3.4108 113 85 61
-1.78275 -1.59818  3.27233 109 83 60
-0.483792 -0.539801   3.61576 102 83 68
-1.72115 -1.68486   3.5092 110 85 63
-1.82597 -1.28617  3.49233 74 55 38
-0.672147 -0.551941   3.52944 111 97 86
-0.454755 -0.604509   3.63127 86 60 45
-2.14004  -1.1378  3.51571 100 73 54
-0.0494605  -0.296874    4.19833 86 67 52
 -1.65886 -0.941497   3.44473 129 117 103
-1.37775  -0.8845  3.57134 112 87 67
-1.29818 -1.40494  3.74221 113 94 77
-1.95447 -1.10709  3.43926 98 70 48
-1.14561 -1.43713  3.79207 127 114 98
-1.49654 -1.30052  3.58984 115 89 62
-1.89234 -1.86241  3.28362 111 81 55
-1.57216 -2.36376  4.23334 103 78 58
-1.51354  -2.4402  4.31744 104 82 59
  -1.4674 -0.357905    3.6282 85 58 37
 -2.00244 0.0599362   3.52632 191 188 183
 -1.72078 -0.948923   3.41785 112 84 63
-0.607467 -0.634904    3.5427 85 66 49
 -1.02887 -0.113271   3.50745 107 81 58
-1.41811 -1.02889  3.55077 121 108 91
  -2.16199 0.00412119     3.9911 196 192 189
-2.04022  -1.6395  3.18906 113 86 65
-1.58444  -2.3517  4.20884 116 88 66
 -1.30645 -0.327497   3.69884 78 68 59
-1.58588 -2.33198  4.20951 101 73 51
 -1.77622 -0.152487   3.50097 125 95 69
0.0725494 -0.409958   4.26584 101 75 52
-1.75213 -1.17558  3.45365 104 82 61
  -1.60633 -0.0497963    3.46424 101 75 52
 -0.89074 -0.919367   3.46432 92 66 43
 -1.39785 -0.527529   3.59791 93 67 44
-0.325227 -0.871179   3.73958 126 113 97
-0.632654 -0.707789   3.51037 105 79 54
-1.35727 -1.50243  3.81092 108 81 54
-1.80134  -1.3589  3.53772 117 108 101
 -1.34876 -0.293728   3.68049 79 66 58
-0.678717  -1.05206   3.56327 121 90 62
-1.26718 -0.57154  3.66612 72 58 49
 -2.04733 -0.957567   3.44469 108 80 59
-0.849611 -0.476495   3.54209 112 86 63
-1.45869 -1.11904  3.55894 103 76 59
 -0.98344 -0.186261   3.58092 88 67 50
-0.382179  -1.14713   3.79776 114 84 58
-0.520534  -1.05135   3.63922 121 87 60
-1.01606 -0.83589  3.45742 113 85 61
-0.684543 -0.562928   3.51578 114 101 92
 -0.585728 -0.0321383    3.76764 75 57 43
-1.60499 -1.05274  3.46951 118 105 88
 -1.42035 -0.416052   3.61154 78 57 40
 -1.80979 -0.948308   3.41529 111 83 59
-1.73552 -1.85607  3.61488 123 109 96
-0.538929  -1.36887   3.86609 105 78 57
 -1.89489 -0.771171   3.46286 73 50 32
-1.69475 -1.08251  3.42571 116 91 71
 -1.56793 -0.987894   3.46612 124 106 84
 -0.75055 -0.540052   3.51014 113 97 84
-1.62147  -1.3472  3.58435 112 91 74
-2.00287 -1.51239  3.21693 113 88 66
-1.52441 -1.09227  3.49507 114 87 60
 -1.44631 -0.684671   3.56416 98 67 49
-1.25895 -1.15746  3.62006 116 88 66
-1.97494 -1.70395  3.16649 125 95 71
 -1.69081 -0.148569   3.45687 118 88 62
-1.37678 -1.07751  3.57516 127 110 100
 -0.896217 -0.0724882    3.58668 80 54 37
-1.98355 -1.90453  3.26512 124 93 65
-1.68297 -1.21262  3.48858 110 82 60
-0.125601 0.0604493   3.73388 180 177 172
  -1.346 -2.35309  4.53617 116 102 89
-0.692185 -0.511145   3.52741 100 77 59
-0.970694  -1.01728   3.50176 115 85 61
-0.845809  -1.33818   3.73095 97 69 47
 -1.25996 -0.600629   3.66836 83 72 66
-0.634186 -0.916954   3.53835 102 77 57
-0.484153 -0.691681   3.59861 105 77 55
 -1.32984 -0.595227   3.63014 81 55 38
-1.33843 -1.02334  3.57235 105 83 60
-1.85686 -1.62146  3.22383 117 87 61
 -1.63817 -0.106648   3.47824 113 83 59
-0.694443 -0.274947   3.58024 76 55 36
 -1.83631 -0.859928   3.44231 96 74 53
 -1.3978 -1.09047   3.5685 114 104 95
-0.659141  -1.43893   3.82507 111 81 55
 -1.46935 -0.292869   3.63631 91 66 46
-0.808175  -1.34315   3.76292 113 82 54
 -1.95124 -0.960334    3.4148 101 73 52
 -1.47352 -0.330133   3.62294 85 58 37
-1.91572 -1.18938  3.45728 89 66 48
-0.977833  -1.08403   3.57862 116 93 75
-1.98384  -1.0276  3.42782 104 76 54
