ply
format ascii 1.0 
element vertex 1210
property float x
property float y
property float z
property uchar red
property uchar green
property uchar blue
end_header
   1.0288 -0.473934   3.71502 113 129 102
0.0859451  -0.46718   3.18089 57 103 66
 0.100942 -0.477492   3.18523 51 97 60
  0.203022 -0.0251319    3.24347 47 82 50
0.228535 -1.25178   3.1495 53 77 51
-0.261127  -1.03338   2.97799 65 117 81
 0.54417 -1.27504  3.21148 47 82 52
0.984122 -0.24493  3.69368 93 118 89
-0.102145 -0.531066   3.06708 42 97 58
  0.571735 -0.0691211    3.45951 35 85 50
-0.0823703 -0.0531934    3.08042 51 84 53
 0.365467 -0.496474   3.33687 49 90 58
 -0.269057 -0.0208041    2.97389 48 68 43
-0.0907382  -0.277806     3.0736 46 87 53
 0.823945 -0.667076   3.60184 80 122 84
 0.741563 -0.573397   3.55575 78 118 84
-0.0430673 -0.0609123    3.10069 38 86 46
  0.817385 -0.0865085    3.60382 39 85 49
0.914336 -1.11305  3.65518 62 102 68
-0.0996771  -0.438302    3.07344 45 89 56
 -0.77401 -0.801701   3.43802 71 107 69
 0.576817 -0.120578   3.46314 47 91 56
  1.00965 -0.677595   3.71644 81 123 87
 0.941502 -0.707873    3.6649 49 99 64
0.0288121  -1.45753    3.1435 134 114 87
-0.138362 -0.141353   3.04529 65 99 66
-0.650221 -0.608234   3.43496 51 95 60
  4.12551 -0.318345    9.5943 46 40 18
 0.933839 -0.905662   3.67089 90 109 77
0.577034 -1.10764  3.47059 62 91 60
 0.842421 -0.398703   3.60848 144 126 106
0.372568 -1.28939  3.11308 67 96 65
 0.295336 -0.828736   3.07996 66 104 63
0.840606 -1.45664   3.6169 55 96 62
 0.950267 -0.523615    3.6727 119 128 101
 0.255259 -0.489734    3.2768 46 107 63
  0.28259 -0.126082   3.28648 63 108 69
0.932206 -1.47653  3.66525 74 111 78
-0.123591 -0.845672   3.05425 53 116 69
  0.26192 -0.202623   3.27485 60 95 62
  0.69837 -0.123582   3.53341 42 94 56
0.838665 -0.91405    3.609 71 97 70
-0.169141 -0.171651   3.02946 62 98 62
-0.365027  -1.58687    3.0509 75 110 80
-0.761138 -0.994854   3.44228 50 108 70
0.00159446  -0.811598    3.12616 65 117 78
0.383529 -1.23251  3.11547 60 86 57
-0.203669 -0.571704   3.00742 49 108 64
-0.629409 -0.823675   3.43895 53 100 64
 0.412046 -0.172602   3.36476 48 89 57
-0.0139574  -0.954554    3.11856 71 117 81
-0.231879   -1.0625   2.99585 60 102 64
0.154844 -1.55213  3.21606 64 97 66
 0.205636 -0.502838    3.2392 49 101 62
-0.105584 -0.258869   3.06455 45 85 50
-0.650262 -0.962889   3.43812 51 95 62
 0.784309 -0.826446   3.57839 77 122 83
-0.00380324   -0.736332     3.12522 49 104 64
-0.821115 -0.951381   3.44407 62 114 78
  1.07183 -0.874092   3.74466 65 102 69
-0.254002 -0.714026   2.98082 68 110 72
-0.170933  -0.63447   3.02961 70 121 80
0.884758 -1.05649  3.63369 73 119 83
-0.0168073  -0.981009    3.11987 58 100 64
-0.756179 -0.786375   3.43915 68 106 69
-0.675265 -0.799738   3.44177 40 89 60
0.0769046  -1.62234   3.16864 110 129 101
-0.897026 -0.679062   3.45511 71 112 78
 0.044501 -0.534867    3.1586 66 118 79
0.511384 -1.53338  3.41884 104 120 94
-0.744918 -0.927588   3.43621 77 117 83
-0.615661 -0.642705   3.43644 52 102 65
0.762186 -1.54181  3.57146 59 107 69
 0.942838 -0.980555   3.66592 56 97 63
 0.12172 -1.41295  3.19883 104 88 62
  0.24299 -0.478784   3.26797 59 111 73
 0.259251 -0.833386       3.1 64 94 66
-0.429429  -1.53494   3.18261 58 95 64
-0.280875 -0.696509   2.96381 88 130 90
 0.141819 -0.497244   3.20424 47 84 50
 0.484763 -0.553176   3.40859 42 89 53
0.00668547   -1.54613    3.13239 118 117 96
 0.778648 -0.490859   3.57653 90 110 83
0.297267   -1.062  3.08017 71 102 71
-0.196174 -0.660303   3.01812 67 124 81
0.624699 -0.93368  3.48922 45 80 48
 0.573599 -0.662154   3.45685 62 99 66
 0.35884 -1.28566  3.10724 49 84 54
0.601302 -1.09757  3.47867 51 80 50
 0.466114 -0.950142   3.17161 69 87 61
-0.273884 -0.705228   2.97213 67 109 71
 0.296802 -0.804514   3.08008 93 110 76
-0.0486136   -1.49783    3.08927 124 113 93
-0.223158  -0.81458   2.99926 62 124 77
  0.35658 -0.830037   3.09917 51 106 67
0.241542 -1.06452  3.12193 63 86 60
 0.276289 -0.404893   3.28681 50 105 65
  -0.138275 -0.00100574     3.05188 41 74 45
 0.257701 -0.798495   3.09489 50 87 56
-0.759508 -0.734755   3.43806 76 111 78
-0.11361 -0.89549  3.06286 68 123 81
 0.447918 -0.750337   3.15659 82 111 81
0.0156562  -1.28712   3.13648 71 111 77
-0.0336816  -0.193601     3.1078 70 101 70
0.0532668  -1.61455   3.15795 99 115 88
0.314283 -0.35349  3.30918 57 112 73
-0.239771 -0.426373   2.98588 72 109 75
 -0.18512 -0.426912   3.01783 39 92 50
 0.628504 -0.113927   3.48778 50 90 56
-0.198576 -0.620137   3.00913 56 109 67
0.913128 -1.32896  3.65421 52 102 67
 0.306623 -0.788334    3.0763 103 112 83
0.791994 -1.12279  3.58469 55 100 67
-0.830349 -0.641978   3.43731 45 95 58
  0.190581 -0.0119514    3.23809 59 92 61
0.621201 -1.22782   3.2572 59 94 61
-0.261699 -0.278228   2.97659 52 79 48
-0.111743 -0.631166   3.06545 66 121 81
 0.394986 -0.483534   3.35531 63 104 72
0.0998158  -0.90217   3.18458 56 93 60
0.429822 -1.24277  3.14885 84 107 79
 0.352773 -0.292682   3.33009 44 94 57
0.0489554  -1.07487   3.15588 40 90 53
 0.938474 -0.117062   3.67903 75 100 71
0.109453 -1.42272  3.19614 123 103 78
-0.0134844  -0.778625    3.12624 69 115 78
 0.77849 -1.58341  3.57674 76 120 84
 0.156612 -0.680279   3.21706 47 97 60
-0.253566 -0.769839   2.98212 59 117 77
-0.696801 -0.748147   3.43311 42 93 60
-0.712199 -0.841219   3.43798 69 107 70
  0.030916 -0.0643444     3.1433 60 105 66
 0.386322 -0.616089   3.34715 59 96 62
  1.01955 -0.345658   3.71479 56 100 65
0.254425 -1.18756  3.11241 39 78 47
 0.457223 -0.588295   3.38926 42 93 60
-0.16953 -1.50031  3.03268 146 130 105
 -0.65642 -0.682555   3.44084 42 92 57
 0.171853 -0.449498   3.22756 54 100 61
 0.796686 -0.889006   3.58228 75 117 79
0.140757 -1.31338  3.20645 62 91 63
-0.240864 -0.321566   2.98874 61 98 64
-0.134702  -0.61068   3.04909 63 120 79
 0.579997 -0.689811   3.46485 71 111 77
-0.118925 -0.265187   3.05293 52 102 64
 0.249842 -0.210199   3.26473 71 105 72
-0.0365548  -0.380905    3.10945 52 96 60
0.448457  -1.0986  3.15691 87 106 76
0.563156  -1.2082  3.23013 59 92 63
 0.300908 -0.121615   3.29832 48 89 55
0.0427682 -0.119263   3.14365 56 98 60
 0.537345 -0.467492   3.43962 67 104 71
  0.323198 -0.0358687    3.30523 48 91 61
 0.752181 -0.615071   3.56498 68 105 71
 0.255613 -0.588484   3.27316 64 105 71
 0.97441 -1.16556  3.69089 60 110 75
 1.04703 -1.03452   3.7268 75 120 81
0.340463 -1.59265  3.32748 49 86 53
 0.38479 -1.34355  3.12612 45 79 52
-0.138729 -0.758653   3.05321 59 105 68
 0.49016 -1.54471   3.4128 75 107 70
0.131173 -1.06083  3.19516 38 82 49
-0.0837133  -0.125354    3.08711 64 95 64
 0.788083 -0.133874   3.58281 33 80 46
0.0450141   -1.2704    3.1586 59 105 68
0.0319294  -1.06659     3.144 45 97 59
 0.0712744 -0.0619956      3.166 66 108 68
-0.011173  -1.61246   3.11999 88 117 87
  3.87549 -0.731581   9.88609 69 53 28
  3.97349 -0.211612   9.88601 30 17 1
-0.326921  -1.45661    3.0052 62 114 78
 -0.66803 -0.736963   3.44085 53 103 68
0.0146764  -1.15069   3.13648 44 89 60
0.0450047 -0.308959   3.15283 60 112 66
-0.652635    -1.028   3.43616 65 96 64
-0.693179 -0.668354   3.44999 61 111 74
0.444193 -1.51017  3.37951 75 93 67
0.706744  -1.5251  3.53367 60 106 70
 -0.212595 -0.0666846     2.9976 53 82 51
 0.104701 -0.210684   3.18285 73 113 78
-0.0993275  -0.890521    3.06531 58 116 75
 0.129923 -0.658475   3.20501 54 117 74
 0.692732 -0.176871   3.52506 61 102 70
-0.023753 -0.647795   3.11737 50 109 65
 0.329723 -0.985952   3.09143 73 113 79
0.919646 -0.35782  3.64805 107 125 101
0.0415316 -0.573274   3.15554 57 105 67
-0.0317776  -0.136143    3.10672 72 99 68
-0.140896 -0.937585   3.04768 57 102 69
-0.279614 -0.904319   2.97399 59 99 64
 1.01594 -1.23857  3.71428 60 106 70
0.930986 -1.22095  3.66794 52 97 64
-0.697879  -0.73268   3.44038 45 97 59
 0.324434 -0.470555    3.3116 50 96 67
 0.126912 -0.215693   3.19304 76 110 77
-0.126708 -0.568523   3.06099 65 115 78
-0.210822   -1.0865   3.00729 73 114 80
0.421396 -1.25766  3.13842 83 106 78
-0.0158041  -0.460211    3.11951 50 94 59
-0.15217 -1.53645  3.04126 129 117 95
0.848498 -1.01197  3.61175 77 114 80
-0.0880293   -1.17087    3.07847 63 100 66
0.733907 -1.00002   3.5509 56 93 60
-0.614031   -1.0226   3.43763 55 90 60
 -0.18443 -0.602587   3.02271 57 110 68
-0.284508 -0.788263   2.96452 69 122 80
0.567464 -1.28299  3.22201 52 86 59
 -0.232083 -0.0705122    2.99344 46 79 48
-0.081364    -0.245   3.07963 56 104 66
-0.103015  -1.32972   3.06655 99 118 90
-0.125376 -0.806518   3.05758 52 110 70
0.963044 -1.23066  3.68699 61 101 67
0.252332 -1.36478  3.10853 63 100 69
 0.88102 -1.09051  3.63435 65 109 74
0.0432886 -0.452815   3.15069 49 107 66
-0.233043   -1.3353   2.99526 149 129 105
0.0543636  -1.54362   3.15632 128 120 99
-0.654581 -0.813266   3.43901 57 101 68
 0.695625 -0.965219    3.5299 64 101 68
 0.427763 -0.833674   3.14686 63 100 66
0.125652 -1.40074  3.19364 88 94 68
-0.036867  -1.08019   3.10957 49 104 65
0.425955 -1.08861  3.15663 79 104 74
 -0.62096 -0.895824   3.43982 61 102 70
-0.105115  -1.14397   3.06176 62 103 71
 0.517101 -0.613696   3.43002 72 116 80
-0.128343 -0.120719   3.05998 53 90 56
-0.679452 -0.971823   3.43672 57 96 65
0.343691 -0.99868  3.09514 59 100 66
  1.06671 -0.633203   3.73764 95 119 93
-0.668622 -0.950695   3.43593 53 92 61
 0.242894 -0.326806   3.26683 55 101 65
-0.234602 -0.853212   2.99524 64 119 80
 0.75948 -1.02599  3.56673 68 105 72
-0.680997 -0.731306   3.44249 43 95 59
 0.693132 -0.402092   3.52802 127 112 89
0.974307 -1.44787  3.68203 48 93 60
-0.170572 -0.585045   3.02502 54 111 68
-0.119074 -0.480558   3.05935 43 90 58
-0.109289   -1.0224    3.0622 62 112 75
0.80132  -1.067 3.58899 74 109 77
  0.13996 -0.757502   3.20572 49 106 65
0.338113 -1.36359    3.094 55 91 63
 0.502262 -0.625351   3.42309 61 107 70
-0.170858  -1.00992   3.02955 48 102 70
-0.682436 -0.682145   3.43855 47 99 63
0.0846279  -1.54064   3.17605 136 120 97
0.526856 -1.25225  3.21075 55 81 54
-0.0881512   -1.55368    3.07329 124 130 104
 0.834806 -0.866475   3.60555 57 102 69
0.0250585  -0.40069   3.14763 51 95 60
-0.102511 -0.390493   3.06594 54 100 63
-0.241956 -0.284747   2.98692 53 93 58
  0.82814 -0.904991   3.61292 72 113 81
-0.700541 -0.793164   3.43678 40 91 58
0.554601 -0.95393  3.44287 53 94 62
0.0741327 -0.404085   3.16909 54 102 64
0.0828236 -0.891107   3.17398 57 102 63
-0.120644  -1.02494   3.05997 54 104 67
0.0705298  -1.49506   3.16663 137 116 89
 0.076311 -0.995166   3.17158 40 87 51
  3.74297 -0.820401   9.96881 42 30 14
-0.155829 -0.349105   3.03637 49 97 55
-0.164605 -0.824651    3.0315 50 122 72
 0.580393 -0.865632    3.4653 58 98 71
-0.719112 -0.659049   3.43295 57 109 71
-0.214916  -1.34103   3.00346 136 116 92
 -0.217057 -0.0314245    2.99892 52 67 48
0.0762783  -1.27545    3.1714 49 92 62
-0.101202 -0.801183   3.07191 50 104 68
-0.301805 -0.672893   2.95626 98 118 81
 0.406775 -0.463606   3.35904 57 102 69
0.109374 -1.47852  3.18824 125 114 94
-0.633031 -0.908933   3.43033 45 90 59
-3.98511 -3.78386  7.91639 117 99 87
0.82177 -1.3338 3.60297 63 107 72
-0.0836652   -0.70998    3.08014 54 113 69
0.114387 -1.33961  3.19237 46 83 52
 0.408176 -0.564628   3.36414 61 103 65
 0.189801 -0.228997   3.23545 83 103 75
  1.05938 -0.433175   3.74261 84 105 72
  4.10583 -0.207021   9.54952 39 32 14
0.0982028 -0.768708   3.18801 40 95 56
-0.251685 -0.997083    2.9841 60 115 76
0.350329 -0.42544  3.32894 55 102 68
  0.235391 -0.0109351    3.26485 48 88 53
0.469292 -1.15028  3.16228 65 106 66
-0.202618 -0.892987    3.0067 60 106 67
0.378089 -1.00699    3.118 65 109 76
0.858404  -1.3526  3.62534 51 98 64
 0.732884 -0.230371   3.54993 141 115 100
 0.159146 -0.112892   3.20461 75 116 72
0.432613 -1.11135  3.14795 79 94 63
0.0676196 -0.485459   3.16185 46 103 62
 0.155959 -0.877844   3.21592 55 99 64
 0.470335 -0.295832   3.39737 62 102 68
0.610675 -1.29372  3.24346 46 81 51
 0.691712 -0.785101   3.53071 57 110 68
-0.262121 -0.152213   2.97281 52 88 52
-0.258624 -0.621763   2.98177 78 121 75
-0.0384049  -0.959272    3.11215 71 122 79
0.0472177  -1.19025   3.15753 45 86 56
0.0124889 -0.559859   3.14071 63 107 71
 0.628046 -0.561982   3.48949 52 98 62
0.00888522  -0.397958    3.13597 52 96 61
-0.252178 -0.858316   2.98125 61 115 81
-0.228356 -0.402685   2.98946 44 91 55
 0.848481 -0.439839   3.61172 147 120 101
-0.259005  -1.27057   2.97983 126 115 95
0.0674613 -0.356458   3.16448 61 107 71
0.165676 -1.27632  3.21726 56 89 60
-0.706598 -0.738508   3.43625 58 108 71
-0.0633477  -0.701209    3.09599 47 105 65
0.675679 -1.05417  3.51584 53 90 59
0.00980433   -1.17409    3.13208 51 94 64
 0.583085 -0.767433   3.47018 57 97 62
   0.7732 -0.401897   3.57506 142 124 100
-0.204122 -0.375981   3.01178 39 83 48
 0.208744 -0.930027    3.1986 64 87 61
-0.0265267  -0.630786    3.11256 58 115 74
-0.265701 -0.188075   2.97628 58 94 58
 0.444623 -0.879569   3.16264 72 105 76
-0.028655 -0.372211   3.11163 46 92 53
0.0210466 -0.702667   3.13896 61 116 74
0.073438 -0.85315  3.17031 52 98 59
 0.348023 -0.883717   3.09916 55 110 71
-0.239882 -0.221498   2.98846 62 96 59
0.00238543  -0.349562    3.12624 45 103 62
 0.200507 -0.647327   3.24658 49 96 60
-0.210069  -1.36326   3.00291 137 115 92
0.119874 -1.28221  3.20185 44 88 55
-0.632905 -0.528054   3.44087 40 90 55
-0.611187  -1.08508   3.43271 84 102 76
-0.263627  -1.34159   2.97575 116 128 104
 0.446094 -0.554378   3.37745 45 89 56
-0.632255  -1.28689   3.53124 74 124 87
-0.0277851   -1.01157    3.11374 68 108 74
-0.604922 -0.532721   3.43847 53 109 72
-0.0542582   -1.08565    3.09838 54 112 72
  0.77498 -0.553754   3.57599 102 120 94
0.0353639  -1.23031   3.15004 58 98 64
0.0313037  -1.25015   3.14435 61 101 67
 1.01767 -1.19831  3.71239 63 109 73
 0.126452 -0.846052   3.20503 38 84 48
 0.210869 -0.420002   3.24705 58 102 67
 0.214739 -0.588081   3.25888 66 114 72
 0.582932 -0.435766   3.43477 69 113 80
    0.402 -0.495727   3.35201 49 90 58
0.0341499  -0.85727   3.14117 69 117 75
 0.625309 -0.960308   3.48385 53 86 55
-0.227779  -1.45873   2.99367 139 121 97
-0.0305291   -1.53034    3.10363 113 116 95
-0.0997136   -0.23177    3.06478 50 84 51
-0.142721   -1.5082   3.04035 149 137 115
 0.439967 -0.740981   3.15242 73 99 70
-0.0124567  -0.830167    3.12355 60 117 76
 0.427111 -0.459225   3.36892 46 93 59
 0.708244 -0.571435    3.5379 78 104 75
-3.48193  -3.7995  8.08625 115 97 85
 0.480806 -0.622047   3.40277 58 106 68
0.0393159  -1.46629   3.14754 136 112 88
  0.952731 -0.0256542    3.66849 67 97 63
-0.0904662  -0.183687    3.06987 50 91 57
0.344086  -0.8351  3.09814 47 104 63
-0.0432287   -1.11922    3.10248 52 104 68
 0.276017 -0.197778   3.29359 62 99 65
-0.637693 -0.858433    3.4543 54 96 60
-0.192993 -0.454255   3.02136 52 102 65
0.277745 -1.27367  3.08296 60 91 60
-0.00883594   -0.563308     3.12627 53 103 66
-0.458863  -0.51743   3.21126 64 119 77
 -0.279492 -0.0930097    2.96579 43 76 45
0.434356 -1.22918  3.15234 68 93 64
  0.24079 -0.619261   3.26723 60 106 67
0.857222 -1.46477  3.61624 70 107 74
0.870137 -1.05639  3.62708 63 104 70
0.895424  -0.8771  3.63971 117 102 73
 0.330139 -0.845484   3.08266 54 104 66
 0.945061 -0.923897   3.67951 81 102 71
-0.171904  -1.27622   3.02859 116 118 96
 0.767765 -0.518665   3.56161 104 116 92
 0.099365 -0.277047   3.18692 67 101 68
-0.207209 -0.347017     3.005 53 90 57
0.125595 -1.22499  3.21309 48 87 58
 0.270953 -0.864666   3.09263 58 93 61
0.265206 -1.57182  3.28043 60 100 65
 0.103591 -0.932491   3.19442 47 98 67
-0.601108  -1.06926    3.4256 65 102 69
-0.087479   -0.8607   3.07419 56 118 71
-0.133908  -1.28734   3.05835 93 116 87
0.0152756 -0.747524   3.13444 63 111 69
  0.060218 -0.0172866    3.16256 59 105 66
-0.0121979   -0.67854    3.13327 53 116 71
 0.270572 -0.149505    3.2837 55 101 65
0.0140155 -0.794785   3.13949 59 109 71
-0.00754129   -0.110499     3.12642 58 100 64
 0.852116 -0.655213   3.61315 71 118 76
-0.0264836   -1.60689    3.12223 91 114 86
  0.193342 -0.0250752    3.22528 46 79 48
0.148201 -1.61314  3.20337 61 102 68
 0.535445 -0.353568    3.4374 114 156 120
 0.712611 -0.257776   3.53284 147 130 112
-0.157723  -1.62854   3.03378 71 111 77
  0.486895 -0.0047172    3.40823 42 85 55
 0.721677 -0.511765   3.54654 149 134 113
  1.12624 -0.420315   3.78264 54 106 67
  1.1215 -0.57019   3.7737 112 85 58
  1.12712 -0.135501   3.77887 49 95 56
0.297494 -1.63336  3.28817 53 97 64
0.454821 -1.64091  3.39214 66 99 72
 0.625161 -0.806703   3.48544 75 123 81
0.300277 -1.66134  3.28036 224 223 221
0.549103        0  3.43504 47 86 55
 0.467757 -0.551239   3.39505 53 103 68
0.243911 -1.63905  3.25677 68 105 74
  1.13326 -0.343051    3.7866 61 105 72
 0.809176 -0.575784   3.58926 134 126 105
 0.623554 -0.563358   3.48293 56 103 67
 0.937808 -0.209637   3.66372 46 90 55
0.667881 -0.71787  3.51898 55 96 64
0.240938 -1.50228   3.2637 66 117 76
 0.929283 -0.719893   3.66469 66 116 79
 1.02393 -0.53495  3.71271 153 138 115
   1.13466 -0.0319436     3.7907 81 85 70
-0.258736  -1.64574   2.97775 83 107 83
  0.67866 -0.227052   3.51481 147 136 118
 1.03845 -1.23174  3.72505 108 139 108
-0.104187  -1.08083   3.06895 40 85 52
-0.00692508   -0.206857      3.1187 75 109 72
0.742268 -1.09967  3.55815 49 86 55
 0.924192 -0.459074   3.66465 88 111 91
0.556766 -0.45802  3.44929 125 165 131
  0.90025 -0.261002   3.64988 151 136 117
0.883963 -1.38653  3.63926 80 124 89
  1.12976 -0.498719   3.77789 147 128 113
 0.267808 -0.454853   3.28728 69 118 73
0.0527968 -0.151783   3.15522 53 95 59
  0.58385 -0.001577   3.46153 107 136 108
 0.0412254 -0.0826218    3.14007 69 114 75
     0.149 -0.0875532    3.22144 72 113 71
-0.143629 -0.866416   3.03963 63 124 80
-0.100641  -1.64118   3.04475 88 124 88
0.0258697 -0.247188   3.14613 50 90 56
0.0254165 -0.247114   3.14534 52 91 60
0.503031 -0.34181   3.4187 131 172 132
   0.9826 -0.799789   3.68716 70 110 76
 0.795539 -0.200223   3.57969 41 101 63
  1.09053 -0.590048   3.75712 154 138 113
 0.749609 -0.559528   3.55818 71 108 75
-0.0275398   -1.49816    3.11342 148 133 112
0.237897 -1.45491   3.2689 59 112 68
  0.518348 -0.0442956    3.42535 89 130 96
-0.0200414  -0.873719    3.11535 62 92 64
0.0927254  -1.31497    3.1825 70 103 76
-0.0887969   -1.49846    3.07561 141 101 76
 0.136522 -0.304142   3.20664 101 127 90
-0.133351  -0.68069   3.06086 67 124 81
  0.865563 -0.0620433    3.62557 98 128 100
  0.945182 -0.0920613    3.67759 51 83 59
-0.140316  -1.33468   3.04638 115 125 101
  1.04237 -0.321739   3.72962 44 100 61
0.340746 -1.50781  3.31696 41 81 47
-0.164594  -1.08934   3.03092 89 130 96
 0.468413 -0.201793   3.39883 83 131 89
 0.785736 -0.578193   3.58041 132 137 115
0.577931 -0.52165  3.46045 123 158 126
-0.124533 -0.150404   3.07135 59 97 58
 0.913333 -0.073363   3.65567 92 117 88
 0.243508 -0.405846   3.26959 38 88 53
0.790638 -1.13953  3.57759 66 116 79
 0.41122 -1.46456  3.36844 94 102 81
0.690247 -1.12377  3.52538 78 119 85
0.360356 -1.54046  3.33524 85 118 87
 0.605596 -0.762472   3.47408 76 118 82
-0.198695  -1.21322   3.01164 139 168 140
  0.985018 -0.0639659    3.69221 35 76 44
-0.141623 -0.916286   3.05704 51 101 66
 0.710843 -0.224167   3.54377 143 126 108
 0.889894 -0.043278   3.63857 45 80 48
 0.708814 -0.205999    3.5353 58 93 61
 0.356529 -0.362878   3.33238 78 127 95
0.726894 -1.51158  3.54826 80 132 93
0.0702603  -1.01311   3.16989 35 82 48
0.0702923  -1.01444   3.16752 37 81 48
0.0968031 -0.169676   3.18261 72 112 75
  0.444315 0.00661335    3.38152 75 116 84
-0.0877078  -0.608732    3.07697 42 92 57
 1.02744 -0.64822  3.71832 78 115 84
 0.201852 -0.190636    3.2412 97 107 83
 0.319977 -0.869374   3.08613 43 93 56
0.685689  -1.1611  3.51817 40 87 51
 0.204293 -0.149303   3.24174 59 93 58
 -0.14611 -0.283621   3.03614 61 109 69
 0.523421 -0.357102   3.42908 133 175 139
-0.154776   -1.1674    3.0358 94 134 99
0.096063 -1.28524  3.18279 37 78 48
-0.0927502   -1.27896    3.07238 87 122 89
0.831964 -1.39841  3.60667 85 129 93
-0.099959 -0.911036   3.07105 66 123 80
0.360496 -1.49113  3.33452 71 106 74
   1.0666 -0.255005   3.74082 89 126 93
  1.08148 -0.469139   3.74858 118 100 76
-0.0813458  -0.400119    3.08152 43 84 50
  0.72311 -0.150889   3.54237 47 108 64
 -0.1711 -1.28856  3.02827 139 133 109
 0.560223 -0.289996   3.44961 66 110 77
0.0738318  -1.40896   3.17004 91 114 86
  0.68156 -0.105996   3.52168 53 108 69
 0.89767 -1.35154  3.64754 51 98 64
0.929029 -1.40113  3.66487 91 130 99
  0.939646 -0.0608802    3.67276 51 88 55
-0.214082 -0.133551   2.99362 40 77 43
-0.170064  -1.15682   3.02892 89 131 93
 0.442644 -0.218662   3.38542 49 94 61
 0.903777 -0.713034   3.64901 55 102 66
0.339637  -1.4679  3.32289 32 79 47
  0.248008 -0.0206338    3.26997 34 71 37
  0.752294 -0.0711511    3.55822 61 103 67
 0.99653 -1.55144  3.70679 60 92 68
 0.742621 -0.667936   3.56616 53 103 66
 0.901222 -0.710478   3.65282 53 100 64
 0.0318998 -0.0963219     3.1465 72 118 79
 0.709378 -0.426378   3.53523 133 115 95
0.382045 -1.48406  3.34963 48 77 49
  0.901705 -0.0953102    3.64802 59 77 55
  0.19245 -0.252466   3.23657 93 130 97
 0.675467 -0.868563   3.51419 40 81 49
-0.250775 -0.760132   2.98209 47 108 67
-0.243601  -1.28672   2.99143 140 128 104
0.0197922 -0.193089   3.13753 71 113 75
  0.31975 -0.131876   3.31655 39 84 51
 0.25776 -1.54203  3.27631 71 117 78
 0.542633 -0.191214   3.44006 112 138 111
 0.542114 -0.189685   3.44315 103 127 105
-0.104467  -0.85813   3.06875 59 120 76
 0.458804 -0.436595   3.39245 75 127 91
-0.0227242   -1.43077    3.11139 139 115 91
0.276472 -1.46494   3.2874 39 89 54
 0.781005 -0.220801   3.57789 146 135 115
  1.00852 -0.719055   3.70968 70 120 82
   1.0426 -0.282731   3.72894 98 144 108
 0.259947 -0.074114   3.27691 67 115 75
 1.04586 -1.33314  3.73345 88 127 96
0.525414   -1.593   3.4324 55 96 54
-0.0943621  -0.675715    3.07261 46 107 65
0.364827 -1.51627  3.34042 48 81 50
-0.274511 -0.768468   2.96855 99 146 110
 0.549317 -0.160074   3.43968 89 126 93
 1.10375 -0.29359  3.76405 50 102 63
0.865923 -1.16437  3.63063 63 108 75
 0.905016 -0.450752   3.65188 138 142 119
 0.184823 -0.497096   3.23325 69 115 76
 0.581399 -0.322752   3.47198 75 115 80
-0.228104 -0.533787   2.99801 61 118 77
0.0445903  -1.48338   3.15218 157 133 105
0.776925 -1.00456  3.57658 57 97 63
  1.06734 -0.109529   3.74492 60 74 57
 0.506533 -0.358073   3.42051 83 125 89
0.424301 -1.49736  3.37183 58 76 50
  1.12473 -0.280632   3.77362 87 128 94
 0.399004 -0.870591   3.12825 55 102 66
  1.10393 -0.483424   3.76261 157 135 111
0.612092 -1.08632  3.48061 81 114 85
0.611893 -1.08614   3.4815 74 109 76
-0.199808  -1.15121   3.01073 86 123 89
-0.094777 -0.333897   3.07682 39 83 48
  1.05545 -0.122012   3.73641 88 105 87
 0.58413 -1.43662  3.45159 51 86 53
0.949616 -1.02388  3.67554 78 124 88
  1.06559 -0.709151   3.74216 72 110 73
 0.479446 -0.343933   3.40776 72 109 76
-0.144747 -0.888642   3.04589 70 127 84
 0.84755 -1.57043  3.61758 101 134 103
-0.213265  -1.32452   3.00412 149 132 112
 0.803418 -0.772359   3.58979 83 131 93
 0.657584 -0.143898   3.50926 45 84 53
0.697245 -1.11545  3.52952 87 122 89
0.530475 -0.24793  3.43189 105 135 107
0.0171277 -0.579481   3.14089 46 92 55
-0.0489322  -0.268605    3.10432 47 88 54
0.622029 -1.52111  3.48461 54 94 60
  1.0354 -1.35635  3.72536 51 96 63
  1.09236 -0.199762   3.76147 90 130 96
 0.531635 -0.621285   3.42658 61 108 72
-0.206356  -1.10236   3.00799 66 110 77
  0.175564 -0.0244965    3.22709 43 74 43
  0.44933 -0.412796   3.38634 43 93 58
0.964015 -1.10175  3.68718 84 131 95
 0.919935 -0.232922   3.65448 70 95 65
0.684784  -1.6134  3.52681 83 118 85
0.863483 -1.32256  3.62456 76 130 94
 0.912504 -0.894611   3.65425 115 114 86
-0.176877  -1.17302   3.02503 55 99 63
-0.281178  -1.31639   2.96737 111 116 93
  0.91074 -0.135012   3.65115 109 122 102
 0.536316 -0.346589   3.43675 87 129 93
-0.0443576   -1.13742    3.10084 66 116 81
0.772341 -1.53244  3.57274 91 137 100
-0.0471197   -1.06271    3.10194 63 122 78
0.612793 -1.16445  3.47463 55 93 54
 0.388316 -0.218836   3.35122 58 95 62
 0.305289 -0.558547   3.30612 58 116 76
 1.00569 -1.18158  3.70862 52 99 63
0.448553 -1.00839  3.15737 97 116 86
  1.01453 -0.378831   3.71456 87 127 93
  0.392166 -0.0662679    3.34968 66 111 78
 0.889451 -0.991892   3.64567 57 97 70
  0.974953 -0.0383396    3.68937 49 86 53
-0.0586641  -0.554099    3.09795 40 98 57
-0.0580755   -0.55549    3.09668 38 96 55
-0.0171116  -0.155435    3.11503 92 124 87
 0.389461 -0.184727   3.35205 57 98 64
 0.992696 -0.823383   3.69766 87 105 79
 0.443992 -0.894482   3.13926 74 103 72
0.403246 -1.55842  3.36052 73 104 73
  0.387438 -0.0373595    3.34673 79 116 85
0.0207616  -1.07557   3.14495 63 119 80
0.952491 -1.52383  3.67688 84 124 90
-0.275182 -0.835374   2.96837 78 128 90
  0.119135 -0.0352332    3.19116 69 110 70
 0.71193 -0.31736  3.53968 124 107 89
 0.17409 -1.59203  3.22997 86 126 91
0.352936 -0.30685  3.32403 46 98 60
-0.103901 -0.294062    3.0711 42 90 52
0.827626 -1.54707  3.60931 64 99 67
0.828489 -1.54687  3.60322 55 96 62
0.651022 -1.16475  3.49541 55 97 57
  0.45425 -0.317119   3.39013 53 93 59
-0.115733  -1.24609   3.06101 86 115 84
-0.195829 -0.927153   3.01444 52 99 63
0.321678 -1.46845  3.31364 60 110 72
 0.942348 -0.629028   3.66892 90 127 94
 1.08104 -1.06454  3.74905 84 129 90
 0.353785 -0.583559   3.33102 84 117 86
-0.188215 -0.549562   3.01837 47 99 53
-0.00509398    -0.60151     3.11973 69 119 81
0.640114 -1.07739  3.50034 45 84 55
0.640926 -1.07897  3.49464 43 84 54
 1.06648 -1.06863  3.74894 58 99 65
 0.51964 -1.56331  3.42674 105 123 97
 0.792371 -0.402845   3.58567 152 134 110
-0.230255  -1.16862   2.99521 95 132 101
 0.732929 -0.112047   3.54822 35 89 53
 -0.21612 -0.609083   3.00063 77 125 83
0.956836 -1.28751  3.67942 49 93 60
  0.47891 -0.119819    3.4034 77 127 92
0.0754514  -1.06533   3.17333 46 96 61
0.712202  -1.6224  3.53432 81 123 87
-0.0996286   -0.47552    3.07048 40 85 54
0.942202 -1.29225  3.67649 81 125 90
-0.184958 -0.789548   3.02096 65 123 75
 0.717509 -0.631152   3.54152 69 120 77
1.00175 -0.8864 3.70087 120 127 96
  1.00274 -0.886102   3.70525 121 125 102
0.662642 -1.53627  3.50599 58 99 65
0.539613 -1.49454  3.43497 70 99 69
 0.738911 -0.327128   3.55302 142 126 110
  0.74667 -0.677325   3.55868 54 102 64
0.449498 -1.60127  3.38668 50 83 54
0.973687 -1.57669  3.69351 92 127 97
0.515576 -1.48603  3.42789 119 122 103
 0.518651 -0.255853   3.42689 65 95 67
 0.944744 -0.661029   3.67253 80 124 91
 1.00131 -1.05396  3.70429 57 102 69
-0.0578736   -1.03132    3.09286 56 103 67
-0.116704 -0.320583   3.06658 52 104 65
 1.07399 -1.41876  3.74523 47 88 56
 0.332293 -0.130427   3.32096 35 84 52
 0.970768 -0.648204    3.6858 74 118 83
  1.02715 -0.843424   3.71895 92 101 72
 0.40158 -1.49648  3.36398 87 110 82
-0.214981 -0.265658   3.00268 43 89 52
  1.08703 -0.143714   3.75064 69 92 64
 0.37063 -0.34991  3.33761 42 89 55
-0.122738  -1.43489   3.05599 165 138 119
-0.0301757  -0.709778     3.1074 46 102 63
0.823135 -1.06829  3.60163 88 119 88
 0.329232 -0.891769   3.08549 73 120 84
 0.579151 -0.135542   3.46012 76 113 80
0.935106 -1.59735  3.66226 90 129 98
-0.168438  -1.22965   3.03063 104 133 105
  0.20617 -0.215845   3.24483 105 125 98
0.395931 -1.45924   3.3585 80 104 78
  -0.2624 -0.213253   2.97429 70 107 66
0.0885266 -0.261734   3.17865 51 88 54
0.0443056  -1.37637   3.15356 46 82 54
 0.867605 -0.190125   3.62982 80 118 79
  1.06554 -0.353686   3.74071 78 125 89
 0.128029 -0.266628   3.20309 58 89 58
 0.965087 -0.532047   3.68298 79 103 77
  0.699328 -0.0149743    3.52789 78 104 79
   1.00008 -0.0799871    3.70273 55 81 56
  1.05234 -0.682364   3.73269 84 122 85
 0.647916 -0.167456   3.50057 68 112 79
0.163802 -1.36582  3.22538 31 74 47
  1.09052 -0.918117   3.75742 48 94 57
 1.07603 -1.13883   3.7445 64 114 77
 0.217791 -0.332606   3.25412 47 88 56
 0.436631 -0.110414   3.37729 42 92 55
-0.0468898  -0.946119    3.10128 50 105 66
 0.525571 -0.209155   3.42666 55 90 60
  1.04361 -0.620703   3.72947 71 104 77
 0.160735 -0.392547   3.21907 59 111 73
 0.661464 -0.323097   3.50856 81 106 74
  -0.2213 -0.296224   3.00114 67 98 66
0.0402444 -0.956403   3.15212 62 117 78
0.284243 -1.48968  3.29228 64 121 78
  0.956456 -0.0533882    3.67796 80 117 84
 0.68356 -1.12837  3.51624 81 122 88
 0.882928 -0.955737   3.63628 86 120 85
0.104035  -1.0518  3.18788 62 112 77
0.102674 -1.05189   3.1912 66 111 78
   0.78014 -0.0822861    3.58145 42 86 53
0.784278 -1.17438  3.58442 51 106 66
  0.597872 -0.0637348    3.46494 45 78 47
-0.0346151  -0.814458    3.10899 64 122 81
 0.513614 -0.384061   3.42099 90 127 96
 0.343725 -0.274857   3.32372 67 114 78
0.328066 -1.43544  3.30818 35 79 44
 0.261468 -0.046526   3.27481 58 106 68
-0.0295898   -1.48447    3.11219 153 135 113
-0.0291505   -1.48344    3.11429 150 132 108
0.846737 -1.53683  3.61681 92 125 94
-0.10588 -0.82566  3.06732 50 108 68
0.906444 -1.38369  3.65177 48 93 60
 0.789828 -0.145057   3.58032 33 87 51
-0.0681511  -0.135856    3.08648 48 77 47
  1.0886 -1.18466   3.7567 75 123 85
0.0169143    -1.597   3.13583 82 101 73
 1.00324 -1.29567  3.70543 85 130 97
0.622139 -1.13606  3.48304 64 106 68
 0.391513 -0.634886   3.34781 73 113 78
 0.389922 -0.633159   3.35607 79 113 80
  1.06528 -0.167977   3.74246 104 126 103
-0.0176115  -0.406317    3.11794 34 75 43
 0.254566 -0.354193   3.26988 61 118 77
0.00395229   -1.02377    3.13096 43 90 54
0.444838 -1.56175  3.38334 96 116 91
  0.827529 -0.0895403    3.60052 60 104 71
 0.231554 -0.421448   3.26027 43 89 53
-0.216941 -0.639712   3.00058 64 110 71
0.603427 -1.58584   3.4741 85 111 84
  0.52998 -0.674149    3.4288 75 119 83
0.0412442  -1.09605    3.1491 41 93 55
-0.0609345  -0.162012    3.09297 44 81 50
-0.210248 -0.535304   3.00607 38 91 49
  1.0002 -1.14673  3.70637 52 97 64
-0.137923 -0.507588   3.04611 58 110 71
 0.96093 -0.32659  3.67919 102 131 101
-0.275465  -1.01547   2.96867 62 116 80
 0.254955 -0.319951   3.27499 66 112 76
-0.0859804  -0.927947     3.0756 47 105 64
0.180334 -0.59988  3.23021 49 89 55
  1.10278 -0.441093   3.76425 86 97 67
0.341171 -1.54337  3.32302 43 80 49
 1.05328 -1.01608  3.73497 83 127 92
  0.280876 0.00545969    3.29183 77 101 77
 0.115334 -0.577036   3.19356 63 112 80
 0.327336 -0.393461   3.31499 41 91 56
 0.888793 -0.808603   3.64099 105 124 94
 0.624678 -0.655713   3.48985 76 120 85
0.476561 -1.50398  3.40377 76 99 70
 0.601999 -0.232188   3.47204 48 94 58
 0.467012 -0.120607    3.3999 44 94 59
0.273893 -1.48588  3.28201 40 90 53
 0.817848 -0.120304   3.59432 59 105 69
-0.218549  -0.36197   3.00014 43 78 46
-0.149893 -0.393459   3.04073 41 87 48
 0.183752 -0.347117   3.23225 70 106 80
0.0684982 -0.683008   3.16804 57 105 65
 0.984877 -0.202993   3.69614 63 94 63
0.219837  -1.4814  3.25615 53 110 69
0.988527  -1.1147  3.69572 75 115 81
   0.516417 -0.00472157      3.4244 67 108 76
-0.236141  -0.89519    2.9871 53 100 64
0.973893 -1.46811  3.69232 50 94 61
-0.268179  -0.32399   2.97236 71 102 68
 0.413488 -0.992833    3.1334 60 93 62
0.963868 -1.43664   3.6797 66 110 77
0.964332 -1.43706  3.68587 62 109 75
 0.552019 -0.294917   3.44442 57 96 65
0.729144 -1.51467  3.54684 78 130 91
 0.775948 -0.900663   3.57522 74 120 83
  0.928097 -0.0474905    3.66212 51 85 50
 0.530435 -0.312288    3.4334 73 114 80
0.931363  -1.1376  3.66179 44 96 58
-0.117567 -0.606902   3.05496 63 124 82
  0.83649 -0.789141   3.61098 80 128 90
-0.245673  -1.63699   2.98573 92 139 97
  1.00955 -0.207263   3.70649 71 97 70
 0.953051 -0.215526   3.68152 46 90 55
-0.0597256   -1.28594    3.09217 79 118 87
  0.6136 -1.47917  3.47952 58 93 61
  0.142847 -0.0448293     3.2093 51 89 52
0.475758 -1.46602  3.40244 106 116 92
 0.636201 -0.353707   3.49601 70 99 69
 0.932368 -0.846488   3.66267 121 96 66
  0.55455 -0.522602    3.4421 61 101 67
  1.08558 -0.331726   3.75492 45 97 61
 0.935603 -0.823857   3.66752 123 126 99
 0.853238 -0.799952   3.61893 67 107 73
 0.371452 -0.877675   3.10813 36 91 52
-0.662673 -0.793244   3.43877 53 102 72
 0.126447 -0.722146   3.19905 48 94 55
0.0912785  -0.62031     3.189 46 98 60
0.762135 -1.51259  3.56592 57 103 66
 0.725038 -0.657425   3.54343 51 101 63
  0.656077 -0.0741278    3.51103 49 80 48
 1.06295 -1.26506   3.7397 43 87 52
 0.412165 -0.419921   3.36641 43 88 55
 0.821723 -0.409554   3.59904 131 109 86
 0.871176 -0.103933   3.63157 64 90 63
0.706524 -1.26884  3.30743 77 114 83
-0.0869124  -0.544102    3.07854 64 114 79
-0.10596 -0.98831  3.06612 72 116 83
0.708701 -1.56461  3.53294 40 97 56
0.552783 -1.44086  3.44781 69 98 68
  0.381724 -0.0829149    3.35221 39 83 48
  1.00322 -0.772568   3.70882 62 102 68
   0.3585 -0.473862   3.33269 63 110 76
 0.175973 -0.568806   3.22667 56 112 73
-0.631993 -0.782257   3.43654 64 114 77
-0.165868    -1.173   3.03304 61 103 67
-0.228414  -1.61162   2.99831 102 131 100
-0.227899  -1.61134   2.99612 100 129 98
0.810364 -1.57243  3.59524 64 104 70
 0.329388 -0.531459   3.32119 39 83 48
0.862115 -1.29832  3.62119 53 103 68
 0.700431 -0.169703   3.53218 60 106 70
1.07224 -1.1564 3.74758 56 108 70
0.0871174 -0.187365   3.17892 79 121 81
  1.10122 -0.562118   3.76037 161 141 117
0.191378 -1.48937  3.23945 73 119 82
  1.08415 -0.649977    3.7563 71 112 78
0.962755 -1.05828  3.67954 76 121 82
0.858805 -1.56567  3.62152 71 106 74
0.690712 -1.49727  3.52275 59 100 66
 0.912443 -0.597876   3.65475 64 106 68
0.131151 -1.56952  3.20335 78 118 84
0.938998 -1.55671   3.6712 86 126 91
 0.564797 -0.609558   3.46232 67 111 76
 0.984621 -0.729707   3.69878 53 105 67
0.318406 -1.48883   3.3118 61 116 74
  0.43691 -0.300627   3.38159 53 94 60
0.521674 -0.58252  3.43031 63 109 72
 -0.123958 -0.0389242    3.05602 55 79 53
 0.327345 -0.810216    3.0924 67 101 66
0.983503 -1.19011  3.68818 74 118 85
 0.511872 -0.190881   3.41855 74 118 83
  0.944557 -0.0563869    3.67689 45 78 47
 0.463376 -0.328256   3.39558 76 116 81
 0.837949 -0.998788   3.60901 71 98 65
  0.289519 -0.0112664    3.28926 66 99 70
0.795703 -1.52169  3.58344 62 102 68
-0.0940958  -0.963516    3.07364 50 105 66
 0.614893 -0.396584   3.48214 90 125 93
  1.03345 -0.536824   3.72298 140 115 93
 0.266646 -0.504144    3.2842 62 117 77
0.738775 -1.13712  3.55855 44 83 52
-0.0483491   -0.12516    3.09319 53 73 46
0.889176 -0.10384  3.63642 87 106 86
0.896471 -0.83519  3.64406 117 103 68
-0.282801 -0.762825   2.96494 51 101 64
 0.154495 -0.477603   3.21959 68 112 77
0.0344478  -1.50546    3.1461 144 126 104
 0.434618 -0.363986   3.37626 76 116 82
0.580363 -1.45069    3.459 75 109 72
0.0644766 -0.220486   3.16472 75 117 81
-0.238336  -1.14469   2.99093 92 104 84
 0.330342 -0.487985   3.31466 42 86 51
 0.480316 -0.259789   3.40218 78 118 84
-0.241351 -0.413415   2.98462 59 103 67
   1.0724 -0.397782   3.73951 80 125 86
-0.0130943   -1.20981    3.12686 80 115 83
 0.248511 -0.363617   3.27469 40 97 52
-0.0424764  -0.558737    3.09764 61 122 80
0.0321242  -1.29742   3.14578 44 85 53
  0.28549 -0.184185   3.29206 52 89 56
  0.55068 -0.690447   3.44539 55 99 64
 0.349614 -0.336284   3.32854 69 121 85
-0.0175305  -0.366799    3.11317 59 106 70
-0.154447 -0.943679   3.03806 72 118 82
 0.663916 -0.747032   3.50978 51 93 55
0.431313  -1.5966  3.37648 69 99 71
 0.213739 -0.398008   3.24916 57 101 66
0.668536 -1.59256  3.51595 107 142 109
 0.438339 -0.287678   3.38091 73 114 80
0.103756 -1.30103  3.18058 38 72 45
0.0416877 -0.175806   3.15218 47 91 58
 0.602565 -0.282245    3.4727 59 100 68
  0.30393 -0.179581   3.30164 64 110 73
  1.09593 -0.426459   3.76198 90 124 89
  0.23491 -0.337408   3.25996 66 110 74
  0.313399 0.00177254    3.30948 56 93 62
 0.454801 -0.812919    3.1605 67 98 67
 0.982724 -0.377988   3.69551 94 130 94
 0.86619 -1.39368  3.62573 45 91 55
-0.148874 -0.987517   3.04101 65 126 84
0.0889058 -0.220942   3.17755 58 95 61
 0.352389 -0.547851   3.32764 42 88 52
 0.105265 -0.950243   3.18968 40 92 54
 0.459911 -0.154725   3.38883 36 92 53
  1.04406 -0.207993   3.73277 74 97 71
 0.12099 -1.30915  3.19673 62 97 67
 0.126864 -0.159743   3.20103 58 99 59
-0.224381 -0.564359   2.99643 67 122 80
-0.271488 -0.245158   2.97117 44 74 40
 1.02789 -1.07751  3.72218 72 118 82
0.384894 -1.51797  3.34682 79 108 78
 0.249912 -0.567071   3.27193 68 114 78
 0.167232 -0.624349   3.23223 42 89 55
-0.820312 -0.804635   3.43857 102 133 102
0.0843938 -0.321936   3.17723 49 91 55
0.0542985 -0.475067   3.16182 49 114 71
0.794344 -1.56949  3.58913 71 113 75
1.05217  -1.457 3.73228 72 111 80
 0.841161 -0.812767   3.61201 72 123 82
 0.569558 -0.579828   3.46155 107 149 109
0.971853 -1.51686  3.68718 62 99 68
  0.458578 -0.0922532     3.3954 63 115 79
  0.19047 -0.604465   3.24245 66 107 73
-0.183129 -0.941888   3.02118 69 124 85
 0.084975 -0.245044   3.17902 77 111 76
 0.951036 -0.264055   3.67131 74 120 81
  1.03005 -0.760434   3.71583 71 108 74
0.480004 -1.60105  3.40409 64 104 69
 0.189868 -0.405256   3.23852 62 109 73
 0.622292 -0.215959   3.47662 39 86 52
-0.0195477   -1.25354    3.11594 79 119 85
  0.403995 -0.0795607     3.3628 62 114 76
  1.05057 -0.297552   3.72657 48 95 61
0.949847 -1.37587  3.67711 47 91 58
-0.0270154  -0.774604    3.11266 45 95 58
 0.997453 -0.329633   3.70279 91 128 95
-0.0727162  -0.291771    3.08812 67 111 76
 0.583675 -0.709292   3.46549 76 116 82
 0.12791 -1.17123  3.20743 53 100 64
0.749957 -1.14751   3.5564 61 108 74
-0.149011  -1.23026   3.04178 76 107 76
0.0717454 -0.086177   3.16648 76 116 79
0.000541129   -0.588713     3.12459 72 116 80
 -0.0619467 -0.00890303     3.09281 56 92 56
 0.368089 -0.284266   3.34353 62 112 75
-0.0308986  -0.393931    3.11662 42 82 48
0.873134 -1.47762  3.63446 64 97 68
 0.639373 -0.707737   3.49243 46 87 53
-0.164971  -1.19778   3.03344 82 124 88
 0.415348 -0.282611   3.36647 72 116 81
 0.757382 -0.599435   3.56302 62 102 68
  0.58715 -0.466431   3.46575 75 122 88
 0.350785 -0.119283   3.32888 64 104 69
 0.322475 -0.499103   3.31805 64 109 70
 1.02948 -1.43571  3.72493 45 90 57
0.0470606  -1.31022   3.15274 56 97 65
0.145656 -1.13268  3.20711 48 95 59
-0.0458558  -0.769722    3.10034 46 100 64
  0.14965 -0.465009   3.21596 39 84 51
 0.136227 -0.188686   3.20972 72 120 78
 0.254247 -0.123595   3.27147 62 115 73
 0.570986 -0.296668   3.46112 68 109 77
0.871156 -1.20006  3.63081 69 119 84
  1.09244 -0.797625   3.75881 74 107 78
 0.739708 -0.798191   3.55412 82 116 79
 0.684855 -0.933929   3.52225 81 107 78
0.831157 -0.19038  3.60569 73 119 83
-0.0811732  -0.367831    3.08037 43 87 52
0.0279721 -0.313334   3.14223 40 96 49
0.0281755 -0.313997   3.14035 42 98 51
 0.389344 -0.457525    3.3515 46 90 57
0.18059 -1.5708 3.23078 73 105 68
 0.605896 -0.328225   3.47558 64 99 67
0.542372 -1.51513  3.44234 99 122 94
 0.603812 -0.192502   3.47423 42 86 53
0.123315 -1.19771  3.19731 35 76 44
 0.334593 -0.421545   3.32958 44 89 56
0.959067 -1.26522  3.68017 73 113 79
  0.644602 -0.0861159     3.4986 78 104 75
0.738387 -1.52889  3.54781 54 104 66
 0.760098 -0.306095   3.58192 131 114 96
 0.303609 -0.218313   3.30215 49 93 58
  0.49562 -0.653809   3.41424 49 93 58
  0.794095 -0.0568758    3.58184 53 94 64
 0.69304 -1.10015  3.52975 50 91 57
0.584012 -1.52336  3.46733 72 103 72
 1.08479 -1.37922  3.75379 75 116 82
 0.387532 -0.288186   3.34972 58 108 71
-0.0221892   -1.03435    3.11578 45 95 58
-0.159382 -0.238426   3.03467 42 86 50
  0.841452 -0.0315167    3.61089 58 101 71
 0.38414 -1.46411  3.34916 51 80 52
0.461367 -1.51594  3.39744 89 109 81
-0.110108 -0.932621   3.06199 70 122 83
-0.0339123  -0.429818    3.10796 68 109 75
0.139788 -0.24376  3.20909 61 94 65
0.0577839 -0.866573   3.16177 71 118 74
-0.0154675  -0.846069    3.11754 50 100 63
0.0659131   -1.1666   3.16837 48 89 57
0.978223 -1.28199  3.69027 72 119 83
-0.0497598  -0.413638    3.09733 76 120 87
-0.201681 -0.237643   3.01028 63 105 69
0.186982 -1.37089  3.22253 59 95 67
 0.80536 -1.50304  3.59178 82 122 88
-0.0855868  -0.693597    3.08002 67 126 82
0.0698808  -1.19682   3.16615 39 84 51
0.0695354 -0.347885   3.17277 61 108 72
-0.0333894  -0.893247     3.1074 68 117 85
 0.935575 -0.695665    3.6664 66 116 81
-0.243282 -0.082918    2.9857 58 87 56
 0.147245 -0.578707   3.21483 41 88 54
-0.238428  -1.20151   2.99246 76 113 82
-0.120375 -0.409409   3.05635 65 105 70
0.0743556 -0.943518   3.16864 60 118 78
  0.287471 -0.0192551    3.29318 42 75 46
 0.324367 -0.110516   3.31295 53 100 66
 0.323923 -0.108747   3.31553 53 96 66
0.909896 -1.20083  3.65716 74 118 85
  0.548635 -0.0590446    3.44435 47 98 65
0.187136 -1.55379  3.23648 95 130 90
   1.0562 -0.827621   3.74448 97 126 95
 0.808765 -0.541837   3.59659 118 131 105
-0.0379201  -0.619713    3.10617 44 101 60
0.843074 -1.25752  3.61242 52 98 62
0.000998068    -1.23829     3.12845 72 113 79
0.636213 -0.59594  3.49254 64 114 77
0.355925 -1.57012  3.33269 46 83 52
0.917674 -1.49925  3.65851 73 112 81
 0.169547 -0.350988   3.22783 41 85 49
0.897601 -1.22608  3.64148 75 116 82
 0.702831 -0.812324   3.53224 68 109 75
-0.122538 -0.881445   3.05949 54 111 68
 1.09218 -1.15901  3.75321 78 124 87
-0.125263  -1.59275   3.06036 99 130 98
 0.161784 -0.487563   3.21758 44 88 52
0.841772 -1.29843   3.6145 70 114 81
-0.106809 -0.601756     3.066 65 120 80
 0.853866 -0.329148   3.62238 126 109 89
-0.0237436  -0.275128     3.1184 57 101 66
   1.0113 -0.658389   3.71023 64 104 70
-0.073563 -0.183178   3.08146 59 99 65
-0.0500979  -0.566823     3.1039 57 116 72
  1.04945 -0.801054   3.73603 73 104 72
 0.444293 -0.167279   3.38404 54 104 69
-0.152493  -1.12226   3.03726 78 115 84
 0.794024 -0.686146   3.58778 71 112 72
0.628185 -0.58193  3.48983 49 99 62
  1.03455 -0.491798   3.72724 130 128 107
0.623588 -1.12909  3.48035 65 105 68
0.970161 -1.54091   3.6871 85 120 90
0.0552787  -0.20987    3.1497 50 96 59
-0.0450287  -0.398527    3.10189 46 86 52
0.942079 -1.25055  3.67319 51 96 63
   0.26991 -0.0281213    3.28247 42 83 49
0.66134 -1.1493 3.50972 60 104 69
 0.707378 -0.930378   3.53988 66 107 73
  0.445222 -0.0942352    3.38479 57 111 75
  0.39681 -0.258528    3.3576 47 93 57
 0.682871 -0.508732   3.53052 141 135 109
 0.452136 -0.938889   3.16222 81 104 78
 0.496383 -0.194515   3.41288 68 114 77
-0.0541883   -0.43733     3.0943 47 91 58
  1.03486 -0.425345   3.72252 65 105 68
   0.27439 -0.0527514    3.28339 48 93 54
0.0329912  -1.07815   3.15111 64 116 78
 0.605376 -0.925075   3.48114 56 93 62
  1.05894 -0.736483   3.73947 72 107 74
-0.0295919   -1.26201    3.11009 61 96 64
-0.0417645  -0.482932    3.10363 50 100 63
 0.327532 -0.153302   3.31609 53 103 66
  1.02877 -0.439233    3.7234 85 127 87
 0.436898 -0.056725   3.37875 51 101 66
-0.170191  -1.24131   3.02823 82 105 79
1.03439 -1.0916  3.7257 50 96 60
 0.638626 -0.123591   3.49957 66 106 72
0.481346 -0.15033  3.39834 35 85 48
  0.56835 -0.360113   3.45471 108 150 114
0.929799 -1.49137  3.66252 58 95 62
 0.187226 -0.659258    3.2352 41 85 52
-0.130849  -1.05245   3.05352 63 109 73
 1.02387 -1.41974  3.71838 64 111 77
-0.274735 -0.570673   2.97283 44 103 57
 0.776441 -0.597795     3.575 105 126 95
-0.117444  -1.30904   3.06065 84 115 84
 0.739495 -0.452029   3.55072 141 126 103
-0.0199681  -0.610485    3.11625 50 105 65
 0.334321 -0.501912   3.31745 50 95 54
 0.526897 -0.125487    3.4281 46 93 57
0.896971 -0.17278  3.64143 79 113 80
   1.0114 -0.706546    3.7139 81 128 86
-0.194255 -0.847672   3.01741 66 123 78
0.0920835  -1.07771   3.17616 65 109 76
0.573734 -1.48185  3.45678 82 120 81
  1.03067 -0.439778   3.71825 83 126 83
0.000170857    -1.06821     3.12291 59 116 75
 0.135378 -0.230048   3.20141 68 97 67
-0.0778853  -0.074546    3.07914 44 73 42
-0.0771767 -0.0755751    3.07641 41 75 42
 0.196964 -0.393965    3.2419 40 87 51
 1.07001 -1.52739  3.74402 54 90 62
0.0493259 -0.420923   3.15338 56 108 72
 0.466767 -0.610982   3.39809 59 109 71
 0.122866 -0.414351   3.19861 57 101 66
0.0500817  -1.07455   3.15373 36 91 52
0.0524415  -1.14422   3.15975 63 107 74
0.624328 -0.45587  3.48993 96 130 97
-0.293719 -0.522325   2.95919 64 110 73
 0.21634 -1.58986  3.25437 64 109 76
 0.582466 -0.847217   3.46178 58 91 60
-0.174459 -0.879447   3.02756 68 123 81
 0.202651 -0.338009   3.24155 73 110 79
0.0933468  -1.13145   3.17926 53 97 64
  0.766424 -0.0824253    3.57208 37 82 49
  1.07962 -0.247231   3.74959 68 116 76
 0.970345 -0.605461   3.68837 60 101 69
-0.146062 -0.496118   3.04254 56 112 73
0.0704253 -0.551033   3.16693 60 116 77
-0.0365154  -0.789073    3.11165 53 108 68
-0.286421 -0.492472   2.96302 61 83 62
-0.254912  -1.05164   2.97976 58 102 67
 0.521744 -0.560627   3.42321 47 92 51
 0.415581 -0.044924   3.36324 41 82 50
 0.402072 -0.966877   3.13129 74 111 78
-0.735006 -0.754584   3.43729 49 95 59
-0.767077 -0.790531   3.43896 84 120 82
 0.313246 -0.320279   3.31887 42 97 58
-0.0239237   -1.27343    3.11543 56 97 63
 0.631289 -0.690773   3.49448 56 97 63
  0.983696 -0.0165056    3.69458 44 84 50
  0.34122 -0.516266   3.32092 63 107 71
-0.165619  -0.48109    3.0295 55 110 71
  1.08644 -0.980346   3.75532 58 100 64
   1.0079 -0.639888   3.70159 62 104 68
-0.203389 -0.411275   3.00982 49 99 62
  1.07451 -0.822799   3.74484 92 123 91
0.725507 -1.13978  3.54845 61 102 70
 0.389597 -0.232654    3.3522 63 98 66
-0.222144  -1.06571   3.00207 75 115 80
-0.220536  -1.28692   3.00041 122 108 79
 0.496307 -0.222882   3.41764 51 91 56
-0.254432  -0.60796   2.97663 83 126 80
0.195529 -1.53867   3.2413 74 111 70
-0.251354 -0.225251   2.98256 52 83 49
-0.020714 -0.555603   3.11855 52 104 65
  0.45602 -0.259199   3.39236 71 111 77
  0.89861 -0.951808   3.64553 59 94 61
-0.123363  -0.78958   3.05191 47 104 63
 0.619934 -0.402248   3.49758 60 97 64
 0.594617 -0.763062   3.47059 83 120 86
 0.906456 -0.699414   3.64488 52 99 65
-0.233835 -0.293621   2.99674 68 102 69
-0.00450275    -1.62888     3.12305 90 121 90
  0.352705 -0.0906389    3.33036 52 96 61
0.0445394  -1.24159   3.15258 64 104 70
 0.143971 -0.409904   3.21527 49 96 62
-0.0302057  -0.696099    3.10826 47 104 63
0.0787565 -0.744471   3.17189 45 106 62
 0.261837 -0.345119   3.27701 46 96 58
0.0984343  -1.32982   3.18572 44 79 49
  1.06292 -0.818115   3.73926 85 112 81
 0.790292 -0.940521   3.58351 75 114 83
0.0784895  -0.60571   3.17146 58 110 72
-0.0737934  -0.757653     3.0869 48 111 68
   0.902427 -0.00956131     3.64286 58 87 59
0.101711 -1.17137  3.18693 54 104 69
-0.026587 -0.161544   3.11207 67 98 66
-0.0394946  -0.409566    3.10568 76 113 80
 0.780536 -0.741772    3.5787 51 112 71
  0.704644 -0.0681003    3.53141 49 101 65
0.744733 -1.12652  3.55917 63 100 69
 0.786488 -0.151595   3.58225 31 88 53
-0.182983 -0.451664   3.02515 42 94 55
   1.0258 -0.710319   3.71844 68 114 77
 0.424853 -0.301621    3.3767 72 116 81
 0.12005 -1.09613  3.19387 55 92 61
-0.167574 -0.932334   3.03054 55 102 66
-0.0241232   -0.94411    3.11477 56 107 64
 0.951097 -0.565298   3.68423 75 116 82
-0.273977  -1.03685   2.96896 65 117 81
 0.714721 -0.777762   3.53849 61 107 68
-0.122181   -1.1636    3.0603 54 98 63
 0.104801 -0.358232   3.18796 46 93 57
 0.975073 -0.387868   3.69274 73 108 76
-0.169411  -1.07594    3.0296 87 128 94
  0.677788 -0.0233024    3.51805 74 99 70
 1.05405 -1.04994  3.73554 79 121 85
 0.106795 -0.568141   3.18953 44 96 57
 0.491121 -0.168467   3.41171 32 88 49
-0.185161  -1.61046   3.01708 78 111 80
-0.220246  -0.91441   3.00281 53 103 66
 0.330262 -0.281372   3.31386 47 97 60
 0.486907 -0.190132   3.41001 45 92 56
 0.587269 -0.783774   3.46971 59 101 63
 0.10397 -1.37311  3.18293 69 93 69
   0.994978 -0.00295153     3.69336 59 105 69
-0.12001 -1.25452  3.05896 77 104 73
0.0705848 -0.982847   3.16496 54 101 65
-0.058554 -0.156298   3.09288 39 72 41
 0.942975 -0.708239      3.67 49 99 64
  0.128517 -0.0327484    3.20594 74 112 73
0.111419 -1.54797  3.19588 97 112 83
 0.148829 -0.536547   3.21847 66 110 75
  1.08834 -0.885182   3.75765 66 121 79
 0.649166 -0.180147   3.50444 39 83 50
-0.254224 -0.713875   2.97917 68 110 72
0.218463 -1.47727  3.25178 41 98 57
   0.3938 -0.539735   3.35695 49 93 60
0.0406946  -1.38888   3.15358 64 98 71
 0.191946 -0.110023   3.23758 75 117 79
-0.165348  -1.11737   3.03189 57 98 66
  1.05201 -0.998778   3.73184 57 101 66
0.0473474  -1.51534   3.15681 140 122 100
