ply
format ascii 1.0 
element vertex 1214
property float x
property float y
property float z
property uchar red
property uchar green
property uchar blue
end_header
 0.345077 -0.372287   3.01416 92 149 108
 0.306845 -0.985761   2.96127 52 90 53
 1.31446 -3.40011   10.106 194 193 191
0.0126409 -0.684433   3.11969 52 108 69
 1.98466 -1.46043  9.72328 207 206 204
 2.09983 -1.67856  9.67726 207 206 204
 1.98942 -1.35256  9.74834 213 212 210
0.364228 -1.14065  3.05028 110 143 112
 2.09669 -1.56826  9.66413 213 212 210
-0.143361  -5.23579   10.9877 172 171 166
 1.98775 -3.41136  9.75408 204 203 201
0.0845653  -5.22349   10.8474 167 166 164
 1.87573 -1.35095  9.79523 207 206 204
-1.82549 -5.20878  10.8419 176 177 172
 0.861726 -0.411392   3.90738 118 136 110
  2.81606 -0.384272   9.23789 207 206 204
 1.20673 -2.97409  10.2124 200 199 197
0.355593 -1.20018  3.03574 72 107 75
 0.526658 -0.639035    3.1984 45 92 58
-0.102652 -0.250132   3.18282 50 94 59
-0.244635  -5.21336   11.0073 172 171 167
0.439493 -1.06283   3.1776 93 133 99
 1.42708 -3.62259  10.0623 197 196 194
 0.458851 -0.886568   3.19231 25 66 32
 1.43169 -3.40819  10.0611 201 200 198
 1.31295 -3.17844  10.0711 201 200 198
0.421651 -1.08841   3.1555 55 100 67
-2.31216 -5.56093  13.1382 166 165 161
0.661558 -1.51909  3.56416 75 112 78
-0.964746 -0.849172   3.68554 63 109 70
-0.0422312  -0.809095    3.15128 26 77 44
-0.24368 -1.05152  3.26672 39 100 58
-0.949162  -5.23356   10.3699 167 166 162
 0.208918 -0.217705   3.04679 29 72 44
-0.473099 -0.799399   3.41847 51 95 62
0.251502 -1.34065  2.97926 44 83 54
0.718495 -5.23275  10.4853 176 175 171
-0.739257   -1.4491   3.68643 63 113 76
-0.516347 -0.348895   3.43102 71 111 74
-0.203862  -1.38921   3.24522 50 85 53
 0.558811 -0.608276   3.19913 72 118 82
  0.22845 -0.553236   2.99547 37 83 46
-0.659542  -1.04095   3.64045 37 81 46
0.947629 -1.30994  4.06307 114 107 88
0.0571314 -0.209827   3.09526 27 67 40
 0.475795 -0.699433   3.19283 77 108 77
-0.153334 -0.708446   3.21428 70 116 79
 0.435438 -0.174193   3.17058 42 94 55
0.766037 -3.09382  10.4922 189 188 186
0.270524 -1.39731  2.97455 69 124 84
0.385604 -1.42986  3.07484 61 111 73
 -1.1361 -5.22265  11.5394 185 184 179
 0.446137 -0.416907   3.18071 43 90 56
 1.79159 -1.29626  4.58669 209 208 206
-0.742862  -1.17039   3.69035 51 96 63
0.0264678 -0.278353   3.11162 52 96 60
-2.00084 -5.24282  10.8011 209 209 209
0.803796  -0.4743  3.81054 74 112 75
0.241571 -1.22463    2.987 93 116 88
-0.99244 -0.47238  3.69443 53 97 62
 0.116462 -0.502004   3.05861 30 82 44
-0.412166  -0.24832   3.36204 23 81 41
  -1.0718 -0.511494   3.75027 46 88 52
0.457453 -1.19686  3.19373 39 83 50
0.49431  -3.408  9.9849 173 173 171
 1.83276 -1.71333  6.74399 207 206 204
-0.264934 -0.109451   3.28023 47 91 56
 0.111104 -0.168893   3.06508 31 71 45
 0.678645 -0.388608   3.59117 51 96 57
0.544298  -4.8519  10.6628 176 175 173
-0.580207  -5.21486   11.2035 182 181 177
0.0413507 -0.308206   3.10252 25 69 34
-0.366342  -0.64828   3.33694 57 123 77
0.552154 -1.04409  3.19711 49 87 50
0.687047 -1.55133  3.60636 99 139 104
-0.772784 -0.754948   3.56703 64 105 63
-0.542339 -0.229271   3.44006 38 88 50
  -0.3557 -0.110611   3.33233 29 69 35
0.370403 -1.39834  3.05902 108 139 108
0.188234 -0.26097  3.01686 32 75 45
-0.832091  -5.25886   11.2476 135 134 130
 1.71023 -1.34994  9.89975 208 207 205
-0.699988  -1.58247   3.52812 90 124 91
 2.48674 -3.86931  10.8557 205 204 202
0.213934 -5.18013  10.8472 172 171 169
0.305832 -1.20416  2.95615 114 130 104
-2.74396 -5.54723   12.835 117 116 112
 1.45373 -3.51908   10.043 201 200 198
 2.43378 -1.40368  9.48782 211 210 208
-0.14333 -1.62328  3.21096 58 94 58
-0.816531  -1.00593   3.59615 53 91 52
0.604223 -1.59561  3.46608 106 143 109
 0.71671 -4.63976  10.2838 185 184 182
 1.26512 -3.19136  10.1594 200 199 197
 1.80287 -1.68887  8.86725 205 204 202
0.337641 -5.19049  11.8697 178 177 175
0.324434 -1.40215  2.98007 90 127 93
-0.804316  -5.21523   11.3401 184 183 179
  0.11959 -0.236171   3.05753 62 102 67
0.825739 -1.42702  3.84985 91 135 100
-0.675368  -1.00907   3.51448 82 129 93
0.206251 -3.08787  10.7771 196 195 193
0.0818447   -5.1267   10.8408 174 173 171
0.539378 -3.09487  10.6341 189 188 186
 2.20182 -2.05601  9.58362 211 210 208
-0.999265  -5.29495    10.529 172 171 167
0.623366 -1.16704  3.19426 79 123 87
-0.00311646   -0.555112     3.12911 57 112 72
0.105228 -1.59533  3.06622 70 118 78
-0.526726  -1.02269    3.4098 121 116 97
 -0.23691 -0.645833   3.26558 55 110 70
-1.04032 -1.31696   3.7348 78 112 85
-0.822049 -0.516259   3.60132 87 129 93
-0.965299 -0.965962   3.68418 53 90 57
0.647868 -4.75958  10.5358 181 180 178
 1.09626 -1.59263  4.31397 82 116 81
-0.198861  -1.43583    3.2431 75 117 81
 1.08244 -1.43743  4.30966 83 135 99
0.157165 -1.17954  3.02953 55 96 56
0.0596668 -0.285369   3.09189 27 75 35
0.130455 -5.18477  10.6973 176 175 173
0.297667 -0.60517  2.95713 25 79 43
0.0962743  -3.08428   10.8323 196 195 193
  -1.739 -5.18033  11.7554 179 178 176
0.711413 -1.60442  3.64463 89 114 85
 0.294655 -0.647934   2.96061 35 81 45
 0.515256 -0.343997   3.31295 50 90 56
  0.12485 -0.453662   3.05769 49 105 66
-0.772282  -1.45788   3.70275 39 83 50
-0.0862098  -0.813128    3.17817 48 102 68
-0.249478 -0.502615    3.2787 67 108 74
 0.495897 -0.605857   3.19355 68 109 75
 0.615704 -0.696897   3.19633 46 93 57
-0.232791  -5.16573   11.0696 177 176 174
-0.140729  -5.13038   10.9726 179 178 176
-0.404153 -0.331851   3.36331 21 86 44
0.350136 -1.11962     3.02 79 127 89
-0.447946 -0.944185   3.38906 43 92 60
-2.03275 -4.96592  12.1492 172 171 169
 0.858583 -0.739958     3.378 77 103 74
-0.327217  -4.67449   10.1221 184 183 181
-0.130352  -3.09317   10.9957 198 197 195
-0.804997  -1.31527   3.72333 68 109 77
 0.235406 -0.464504   2.98712 52 104 66
-0.0131168   -3.08775    10.9057 195 194 192
-0.0312288  -0.355684     3.1448 36 76 42
 0.250712 -0.182351   2.97798 31 67 41
 0.157246 -0.559401    3.0376 26 78 40
-0.240378  -1.00389   3.27186 58 114 75
-0.230559  -1.53164   3.25788 69 121 75
 0.199702 -0.624189   3.01136 46 76 40
-0.73324 -1.02504  3.66974 43 84 50
0.646338 -1.00698  3.19391 58 102 66
0.659103 -1.42744  3.56182 89 124 94
-0.676135 -0.574995   3.52035 108 121 111
 -1.04038 -0.240262   3.72501 48 85 51
0.536686 -1.50648  3.34388 67 108 74
 0.497457 -0.968135   3.19395 57 94 63
 0.213369 -0.863814   3.00748 123 107 81
0.628286 -1.07108  3.19763 67 106 75
 0.291677 -0.301189   2.96034 24 83 37
-0.702161 -0.864258   3.53452 56 107 66
0.0138127 -0.706612   3.11991 52 110 70
 -1.39102 0.0186644   3.81506 192 191 187
-0.667299  -5.15301   11.2874 176 175 173
 0.109632 -0.911088   3.06547 112 121 94
 0.72121 -1.62206  3.67106 100 126 97
-0.353264 -0.961769   3.32898 62 107 76
 0.712986 -0.676308   3.18887 69 116 82
-0.232181  -3.19141   11.0046 200 199 197
-1.91562 -5.11183  11.9475 177 176 172
 -1.03327 -0.658312   3.72029 59 101 63
0.686085 -1.13093  3.19734 46 98 62
-0.204046 -0.762015   3.24634 28 82 46
-0.0468773  -0.619277    3.15463 53 108 69
-0.983998   -1.3692   3.68775 53 90 59
0.496304 -2.01116  4.02979 210 209 207
-0.564467 -0.954065   3.45494 39 86 52
-0.896564 -0.276535   3.64278 76 120 85
 0.89383 -1.53831  3.95955 71 115 80
-0.290113  -1.20501   3.29385 46 86 52
-3.29158 -5.01086  10.8267 112 113 108
0.527441 -0.99463  3.19839 57 86 56
-0.906019 -0.971978   3.64795 61 90 60
-0.00157156    -5.23069     10.3279 169 168 164
 0.292656 -0.413042    2.9614 65 106 72
-0.852814 -0.774602   3.61685 85 123 86
-0.687443  -1.04806   3.65379 79 113 80
 0.663023 -0.854598   3.19517 69 126 83
-0.174738 -0.672767   3.22628 70 118 76
-0.436252 -0.110714   3.38429 35 65 37
-0.509689 -0.318883   3.41653 54 100 61
 0.325099 -0.271131   2.97829 66 118 80
 0.276805 -0.302854   2.96736 45 103 62
-1.49802  -5.3579  10.7443 203 202 198
-0.576495  -3.39056   11.1558 202 201 199
-1.89738 -4.39074  11.9842 195 194 192
 0.254569 -0.254478    2.9791 48 100 64
-0.561807 -0.449094   3.44968 92 127 95
 -0.89904 -0.565933   3.64326 57 88 57
-3.03365 -5.21911  11.5854 113 114 109
-0.929812 -0.976083   3.65842 88 112 86
 0.507947 -0.746939   3.19432 56 83 52
0.687577 -1.16101  3.21587 88 110 87
-0.241161 -0.735871   3.26132 28 80 42
 0.204583 -0.663469   3.00979 69 102 71
 0.147294 -0.443197   3.04194 23 70 36
-0.278674 -0.578026   3.28789 55 116 72
 0.564419 -0.941444   3.19042 68 101 72
0.00928352  -0.318554    3.12336 52 96 63
0.530267 -1.06742  3.19613 65 109 74
-0.765105 -0.233062   3.56919 86 128 90
 0.516912 -0.297574   3.30536 75 100 70
-1.69196 -4.04306  11.8468 198 197 195
-0.455378  -3.19321   11.1381 204 203 201
-0.212727  -0.53629   3.25219 29 84 44
-0.0207229  -0.474603    3.13815 26 85 41
-0.671356 -0.992194   3.51211 49 90 58
0.719347 -1.11616  3.19762 48 98 61
0.0915699  -1.25325   3.07471 31 88 47
 0.0764975 -0.0997336    3.08688 62 108 71
0.540381 -1.20347  3.19923 86 117 86
-1.07914  -1.5104   3.7461 80 113 82
-0.458688 -0.272929   3.39089 80 127 83
 -0.23979 -0.321662   3.26633 28 74 38
-1.06588 -1.47825  3.74331 47 84 53
 0.114375 -0.251039   3.06292 34 76 40
-0.0704263  -0.659334    3.16161 31 83 45
0.132719 -0.73235  3.05124 59 98 69
-0.0823023   -1.33204    3.17619 34 92 51
 0.644387 -0.858119   3.19309 63 119 80
0.296698  -1.2594  2.95743 84 92 68
 0.230203 -0.872264   2.99454 101 83 59
0.108952 -1.61279  3.06985 50 96 57
0.262591 -0.82253  2.97476 115 107 86
-0.639622  -5.16075   11.3136 179 178 176
-0.940752  -0.42562   3.66226 49 93 58
 0.1011 -0.3353 3.07283 24 69 40
 0.536232 -0.635556     3.195 32 79 43
-0.858155  -5.13208    11.354 183 182 178
 -1.0945 -1.13043  3.75738 61 97 69
0.632567 -1.15536  3.18458 44 91 55
-0.830294 -0.855939   3.60928 60 108 68
 -1.10951 -0.137256   3.76755 76 111 78
0.0509279 -0.798142   3.10054 35 82 50
0.231784 -5.26314  10.7575 150 149 145
0.698858 -1.09566  3.19978 64 116 80
-0.606279 -0.980625   3.47921 49 86 55
0.250624 -0.78478  2.98244 78 78 54
 0.169886 -0.195892   3.02807 32 71 40
0.522484 -1.14582  3.19797 57 93 65
0.0626271 -0.313544   3.09148 51 97 60
 0.493047 -0.725272   3.19569 47 78 44
-0.081393 -0.901966    3.1741 52 101 69
-0.323908 -0.173894   3.31338 26 70 34
-0.0936119  -0.695572    3.18095 58 116 76
-0.800653  -4.15436   11.3303 200 199 197
-1.06383 -1.30052  3.74207 49 83 56
-0.983316 -0.286573   3.69565 72 118 82
-0.0836129   -1.29566    3.17682 59 117 76
-0.0696052   -2.70666    9.25232 203 202 200
 -0.24663 -0.134832   3.26794 24 71 37
 0.247884 -0.844986   2.98332 125 111 84
 0.305456 -0.295631   2.96046 51 109 68
 0.497511 -0.364734   3.27975 48 92 59
 0.741538 -0.915421   3.19682 83 116 85
0.122349 -1.40135  3.04337 43 95 56
-0.174733 -0.852345   3.22749 27 80 52
-1.38419  -3.7328  10.8357 199 198 196
-0.797045 -0.108227   3.57194 61 94 65
 -0.807797 -0.0999748    3.58999 53 88 58
-0.0495985   -1.31309    3.15323 54 115 73
-1.04396 -4.58519    10.62 191 190 188
-0.111241 -0.190878   3.19157 22 67 36
-0.0179694   -1.51216    3.13451 65 118 76
 0.273023 -0.883306   2.96903 136 110 87
 -1.1123 -5.23329  10.0952 177 176 172
  0.34882 -0.642328   3.02396 73 121 83
-0.494639   -0.1749   3.41482 44 97 55
-0.188874 -0.602875   3.23499 39 87 47
-0.936994 -0.146729    3.6681 65 109 76
 -0.93708 -0.146712   3.66832 66 106 72
0.151053 -1.62022  3.03691 70 122 83
-0.896971 -0.485848   3.65026 50 97 61
-0.847972  -1.67899   3.61774 60 90 62
-0.732024  -0.60859   3.54592 41 104 61
0.628737 -1.02509  3.19137 37 82 43
-0.276515  -1.44992   3.28742 44 88 52
-0.410791 -0.237152   3.36571 25 82 41
 -0.76167 -0.247992     3.562 77 119 83
0.219275 -0.76714  3.00305 76 95 63
-0.222962 -0.416451    3.2537 46 98 60
-0.00474649    -1.28242     3.12689 37 98 56
 0.14132 -1.36827   3.0463 64 112 74
-0.0821791   -1.40301    3.17307 56 104 66
 -0.426574 -0.0877902    3.37648 53 83 55
 0.553064 -0.859195   3.19392 48 94 57
0.134373  -1.3115  3.05799 44 88 53
-1.06753 -3.96196  11.5601 208 207 205
0.289094 -1.24019  2.95821 101 114 86
-0.919286 -0.891673   3.65947 72 107 74
 0.277548 -0.797055   2.96758 82 80 57
-0.253658 -0.590017   3.27394 52 109 66
-0.253633 -0.587598   3.27594 52 109 66
-0.134686   -1.3486   3.20561 54 91 57
 0.45309 -1.15649  3.19023 43 87 52
 0.25615 -1.46929     2.98 73 115 79
0.623145 -1.04855  3.19984 46 87 55
 -1.05654 -0.757319   3.71514 100 118 92
0.118036 -1.20136  3.05747 89 121 80
-0.748367  -1.33883   3.69457 44 80 52
 -1.0203 -1.51247   3.7186 65 100 68
-0.128351  -1.19552   3.20392 45 103 62
 0.244808 -0.548268   2.98638 67 109 73
-0.776771  -5.21716   10.6314 152 151 147
-0.351692 -0.492925   3.33177 63 113 75
-0.173598 -0.187873   3.23353 49 93 57
-0.466268 -0.193673   3.39628 43 87 51
 0.183563 -0.722476   3.02605 38 82 49
-0.986902  -1.62769   3.69306 52 88 60
 -0.33694 -0.869276   3.31857 38 84 56
0.0950173 -0.219962   3.07313 35 72 39
0.727542 -1.10505  3.19575 49 95 59
-0.906706 -0.864833   3.65233 97 134 100
-0.852751 -0.181405   3.62518 50 87 54
 0.184562 -0.766773   3.01891 77 97 70
-0.768305 -0.183546   3.56806 53 89 53
 0.710665 -0.767115   3.19367 55 120 77
 0.690901 -0.807487   3.19622 60 112 76
-0.281227 -0.725842   3.28824 52 98 69
 0.534165 -0.421696   3.33168 52 93 59
0.0713196  -1.41627   3.08461 51 114 67
-0.359959  -1.33496   3.33305 72 118 79
-0.784038 -0.864256   3.57632 59 110 69
-0.652507 -0.153311   3.50907 50 101 60
-0.667476 -0.451395   3.51225 97 120 94
-0.126902  -1.41264   3.20426 80 115 82
 -1.04619 -0.497165   3.73244 50 100 62
-0.0955796   -1.36478    3.18053 45 102 59
 0.736234 -0.854497   3.19492 60 107 71
 0.453948 -0.647056   3.19869 41 76 44
  0.70613 -0.721612   3.19629 60 102 66
0.528959 -1.45415  3.33811 69 113 77
 0.102095 -0.783635   3.06589 32 81 49
 -1.06736 -0.866706    3.7431 82 117 84
0.0787869  -1.65301   3.07988 60 89 59
0.661858 -1.12305  3.19444 39 93 57
-0.960127  -0.23856   3.67992 31 81 44
-0.148578 -0.752242   3.21228 63 107 72
0.0807033 -0.232221   3.08013 49 88 57
-0.985183 -0.397889   3.69087 47 87 53
0.0971872 -0.554108   3.07215 52 90 51
 0.226406 -0.563971   2.99633 48 90 54
-0.328366  -1.01111   3.31969 50 102 63
  -0.25352 -0.0727622     3.2781 51 90 59
 0.129747 -0.515285   3.05409 57 104 68
0.230709 -1.14548  2.99376 131 116 97
-0.796847  -1.13912   3.72199 37 78 48
0.0216557  -1.25683   3.11676 41 88 52
 0.506308 -0.706218   3.19135 53 90 57
  -0.9952 -0.165634   3.69944 41 83 47
-0.150533 -0.150649   3.21945 21 66 35
 -1.12595 -0.789431   3.78266 98 128 94
  0.73959 -0.790077   3.20382 53 103 65
-0.573792 -0.289095   3.45737 72 118 79
   0.6227 -0.915184   3.19434 57 94 63
-0.476771 -0.183468   3.40118 63 109 70
-0.0308571   -1.20656    3.14473 34 87 45
 0.10847 -1.19681  3.06399 65 100 58
-0.201828 -0.121309   3.23889 40 81 51
 -1.05867 -0.815872   3.74211 83 107 81
-0.846655  -1.70048   3.61556 49 88 57
 0.553035 -0.791734   3.19332 58 100 64
   -2.12272 -0.00657895     5.05874 218 210 208
 0.510894 -0.605375   3.19412 42 87 54
-0.408415  -1.59474   3.36317 79 117 76
-0.409011 -0.698013   3.36233 60 117 72
-0.128266   -1.4682   3.19854 85 114 84
-0.660894  -5.26156   10.9658 146 145 141
 0.601777 -0.623368   3.20064 62 109 73
-0.28142 -1.05382  3.28896 60 119 75
 0.297563 -0.147424   2.95909 30 70 44
-0.800052 -0.465761   3.58739 59 116 75
0.285837 -1.61586  2.96368 52 98 61
 0.479739 -0.677902   3.20353 50 90 56
-1.16807 -5.26625  10.2466 204 203 199
 -1.06887 -0.280476   3.73982 48 88 54
-0.60934 -0.63275  3.47295 91 125 92
0.187594 -1.32541  3.02221 73 110 79
-0.671485 -0.607869   3.50843 106 118 106
-0.0103663   -0.16977    3.13486 34 83 51
-0.268914 -0.692238   3.28041 43 89 60
 0.683545 -0.852852   3.19797 46 99 57
-0.364833 -0.128588   3.33904 44 81 48
 -1.09142 -0.452905   3.75354 64 95 63
-0.917782 -0.787956   3.65733 62 99 65
 0.42457 -1.12027  3.16141 65 100 70
-0.993431   -1.4284   3.69838 55 90 60
-0.629867  -1.62144   3.49239 49 93 57
-0.145523  -1.44192   3.21086 82 113 81
 0.211348 -0.971648    3.0049 125 108 82
0.505816 -1.15826  3.19314 36 77 47
 0.130296 -0.252341   3.05127 51 91 57
-0.67647 -1.21815  3.65224 59 106 70
0.00640496  -0.503839    3.12216 53 112 66
  -0.786 -5.25247  9.97677 171 170 166
 0.217306 -0.492305   2.99873 32 86 52
 0.216273 -0.709793   3.00046 48 95 63
-0.570894  -1.11669    3.5912 64 99 69
-0.672633 -0.656088   3.51028 98 122 96
-0.252414 -0.772272   3.27207 29 79 44
-0.607275 -0.496877   3.47554 83 97 82
  0.21881 -0.929509   3.00724 142 123 90
-0.134392  -1.21078   3.20577 48 103 64
-1.02201 -1.13824  3.71124 46 80 53
  -1.17324 -0.0143874    3.69777 184 183 179
-0.173376 -0.775316   3.22642 49 101 62
   0.7403 -0.978753    3.1968 68 110 74
 0.587899 -0.822586   3.19868 47 99 61
-0.506748 -0.962686   3.40494 46 93 61
0.190501 -1.39137  3.01692 78 118 83
-0.69771 -1.44381    3.658 42 86 51
 0.226685 -0.343238   2.99433 37 86 54
0.190063 -1.36036  3.01636 79 108 78
-0.0277087  -0.678543    3.14137 52 108 63
 0.196428 -0.899729   3.01455 104 103 73
 0.692032 -0.676895   3.19104 63 115 76
-0.525717  -1.58557   3.43797 75 117 81
 -0.6134 -1.55631  3.47985 53 103 66
-0.292307  -1.00202   3.29377 40 102 61
-0.176976  -1.64362   3.21946 58 92 57
-0.515604 -0.281161   3.42574 72 108 72
0.294149 -1.16499  2.96248 109 94 75
 0.26415 -1.53639   2.9758 56 103 67
-0.107931  -1.46648   3.19175 72 103 72
  0.70515 -0.844137   3.19668 44 94 56
-0.773498  -1.25109   3.69968 40 84 51
  -2.70599 0.00700046    5.45677 192 188 185
0.335641 -0.73907  3.00864 66 113 77
-0.829769 -0.722574   3.60026 111 131 103
-0.700027  -1.65944   3.53041 76 109 80
 -0.777366 -0.0206276    3.31101 181 180 175
0.263556 -1.13552   2.9707 143 117 94
-0.808422 -0.338062   3.59336 43 90 54
 0.167129 -0.664688   3.03311 65 99 66
-0.420914 -0.522384   3.37203 38 99 55
0.296785 -1.50179  2.95634 51 106 66
-0.575541  -1.52485   3.46343 49 88 59
-1.03767 -5.27372  10.4713 198 197 193
 -0.72964 -0.319307   3.55115 46 104 56
-0.321281  -1.58052   3.31131 67 113 74
 0.552272 -0.638251   3.19496 53 99 60
-0.222279  -1.11023   3.25209 38 95 54
-0.437944 -0.315096    3.3812 37 100 53
0.385956 -1.66785  3.08133 73 118 79
-2.48933  -5.2813  10.6557 194 195 190
-0.504545  -0.57952   3.41466 57 118 74
-1.20558 -5.21327  10.4417 175 174 170
  -2.11619 -0.0248964    5.13688 213 212 208
-0.705716 -0.756547   3.53603 97 130 99
 0.100701 -0.625944    3.0678 27 74 42
-0.83296 -1.54271  3.60364 52 95 65
 -0.61632 -0.366935    3.4792 99 126 95
 0.158167 -0.110516   3.03669 29 70 40
-0.284044 -0.964953   3.29483 43 92 60
-0.460621 -0.889363   3.39093 55 107 71
-0.730919 -0.480891    3.5481 59 108 63
 0.178386 -0.992924   3.02506 128 111 91
  0.25468 -0.704752   2.98114 27 81 45
 -0.49066 -0.141615   3.40803 46 92 56
 -0.45355 -0.661814   3.39085 66 116 79
-0.722638  -1.40938   3.67937 52 99 67
 -0.31395 -0.816017   3.31162 49 96 64
-0.373178 -0.466182   3.34324 32 95 48
-0.126274  -1.27948   3.21385 57 109 70
 0.297852 -0.685468   2.96225 44 90 54
-0.778054 -0.596984   3.57057 78 122 86
0.462088  -1.1463  3.19121 51 90 59
 0.157357 -0.672614    3.0393 36 77 47
 0.633185 -0.934024   3.19582 43 80 49
-0.0629899  -0.289762    3.16455 61 103 67
0.498216 -1.01303  3.20191 47 86 57
 0.110334 -0.191313   3.06547 37 66 36
0.287263 -1.45567  2.96225 50 107 62
0.186365 -1.54938  3.01754 43 99 54
   1.23004 -0.0124047    3.62341 208 207 205
-0.0181744  -0.446022    3.13735 41 98 55
-0.679602  -1.59073   3.51941 58 93 63
-0.861397   -1.3433   3.75355 30 69 40
0.693238 -1.05407   3.1988 54 99 68
 0.115639 -0.529284   3.06071 52 105 61
-0.976218  -0.95182     3.687 60 95 62
 0.579651 -0.754991   3.19392 54 98 62
 -0.182682 -0.0965993    3.24132 24 69 38
0.592824 -1.12562  3.19354 48 87 56
0.660294 -1.10135  3.19548 41 88 56
-1.01753 -1.41736  3.71306 54 84 58
-1.09092 -1.39279  3.76374 48 89 57
-0.631062  -1.63933   3.48665 66 106 71
-0.485132  -1.60113   3.40706 59 103 67
-0.800726  -1.61527   3.58895 72 112 78
-0.350597 -0.435118   3.33696 40 92 54
 0.655511 -0.676023   3.19401 66 104 65
0.0593521  -1.60959   3.09603 55 105 67
-0.298237 -0.673257   3.29714 42 96 62
   -1.01055 -0.00846386     3.50993 190 189 185
 0.104612 -0.474143   3.06588 34 89 47
-0.0394778   -1.42408    3.15017 51 106 66
0.388961 -1.34343  3.09649 74 118 83
 0.207321 -0.441136   3.00918 20 76 39
0.640227 -1.02757  3.18694 60 98 61
-0.0512166  -0.709803    3.15706 37 82 51
 0.662792 -0.983146   3.18417 45 84 53
-0.313075 -0.662642   3.30742 29 85 50
-0.715106 -0.721746   3.53674 69 107 70
 -1.06444 -0.584295   3.73967 73 120 76
 -1.06689 -0.582686   3.74336 72 118 79
 0.124102 -0.346689   3.05777 43 88 57
 0.228966 -0.919643   2.99613 141 107 80
0.0341594 -0.333438   3.10952 42 87 56
0.474898 -1.15665  3.18406 39 75 47
0.0306068  -1.22244   3.11112 39 95 58
  0.68227 -0.881048   3.19616 54 99 66
 0.170368 -0.096878   3.03101 41 76 46
-0.862363 -0.256693   3.62576 42 93 52
-0.137481      -0.7   3.21133 45 97 58
 0.10918 -1.32201   3.0603 49 90 58
 -0.797899 -0.0077563    3.57318 175 174 169
-0.898681  -1.14172   3.68218 84 87 66
0.0180926 -0.904521   3.11371 46 88 52
-0.574376 -0.490176   3.46008 98 128 100
0.239675 -1.46515   2.9889 50 102 63
-0.265752 -0.755389    3.2762 31 83 47
-0.195474 -0.890652   3.24078 51 96 65
-0.862196  -1.27714   3.75552 34 64 38
-0.756738  -1.62363   3.55881 73 108 76
 0.631824 -0.825129   3.18802 39 95 58
 0.556306 -0.970949   3.19331 68 94 67
 0.275116 -0.509795   2.96845 33 77 44
-0.0633854   -1.07181    3.16965 37 98 56
0.601651 -1.17925  3.20343 72 116 80
 0.663075 -0.805875   3.19716 40 94 58
-0.886798 -0.392483   3.64249 55 102 66
-1.04839 -1.32972  3.73479 57 91 64
 0.656721 -0.863284   3.19213 50 107 64
  0.10509 -0.710554   3.06489 45 92 60
-0.450601  -0.34469   3.39106 46 109 62
 0.121278 -0.440251    3.0586 25 80 40
-0.143596 -0.395643     3.208 65 95 57
 0.475068 -0.878492   3.19631 41 83 47
-0.787225 -0.474938   3.58347 45 102 59
-0.0425517   -1.28742    3.14668 47 99 60
-0.570951 -0.861841   3.45423 77 115 78
 -0.152253 -0.0880551    3.21906 33 77 44
-0.943839  -1.52527   3.67042 54 95 61
 0.152829 -0.343692   3.03863 31 76 45
-0.189085  -1.19671   3.23376 49 100 59
-0.541646 -0.485411    3.4384 66 119 77
-0.862638 -0.868129   3.62369 72 119 77
 -1.01293 -0.619339   3.70749 72 120 80
0.0838546   -1.1732   3.07386 49 95 58
-0.197622  -1.07027   3.24255 48 109 65
0.282148 -1.54107  2.96685 69 126 83
0.137328 -1.59792   3.0477 60 110 73
-0.406125  -1.63363   3.36185 63 108 67
 -1.04677 -0.984039   3.73142 63 96 65
-0.00157935    -1.46019      3.1267 54 105 64
 0.117054 -0.387967   3.05736 38 83 50
-0.244868  -1.62045   3.26848 53 90 56
 0.071076 -0.216386   3.08624 27 68 38
0.234606 -1.10425  2.99102 146 126 102
0.248001  -1.1427   2.9803 122 101 84
0.494574 -1.10822  3.19412 45 71 44
-0.847877 -0.200862   3.61653 40 84 48
 0.108799 -0.399385   3.06731 29 74 41
-0.593489  -1.34388   3.59445 38 83 52
-0.874099  -1.31757   3.71511 42 72 48
 0.239569 -0.654113   2.99273 44 83 52
0.190895 -1.47537  3.01753 57 112 73
 0.459841 -0.724746   3.19598 86 95 68
0.0539479  -1.18619   3.09995 31 89 48
-0.33332 -1.28276  3.32145 57 105 65
-0.156241 -0.213014   3.21801 39 83 50
-0.299687 -0.853585   3.30249 40 92 56
0.0669042  -0.36499   3.08653 20 74 40
-0.354362 -0.637369   3.33752 55 116 72
-0.991544 -0.901365   3.69706 83 109 80
 -1.03614 -0.799852   3.73228 104 123 101
0.481049 -1.22547  3.19576 65 96 65
-0.213358  -1.61685   3.25089 56 91 58
0.00295097    -1.0583    3.12933 32 89 48
-0.407654 -0.580136   3.36206 45 111 63
 0.172479 -0.552688   3.02605 38 90 54
 0.225185 -0.523063   2.99471 43 94 53
0.495661 -1.02624  3.19692 34 73 42
0.0876964 -0.305852    3.0895 35 80 47
-0.0185188  -0.545604    3.13609 39 96 53
-0.191679 -0.996264   3.23934 51 98 64
-0.118111 -0.569492   3.19397 63 99 63
 0.169172 -0.173062   3.02974 34 73 44
0.0892976 -0.145339   3.07349 29 68 37
    -2.74414 -0.000721439      5.53769 215 214 212
0.169458  -1.0241  3.02866 136 119 99
-0.526066 -0.525256   3.43012 59 118 74
-0.327509  -1.06404   3.31837 42 105 60
-0.0101232  -0.496964    3.13596 40 99 55
-0.27503 -1.19506  3.28702 62 103 69
0.214301 -0.76389  3.00097 71 96 64
-0.277495 -0.737633   3.29319 29 83 47
0.198602 -1.50612  3.01016 69 120 79
0.17005 -1.0663 3.03009 138 121 101
-0.135114 -0.596697   3.20113 61 101 64
-0.404988 -0.141496   3.35684 37 72 39
 -0.49297 -0.967437   3.40779 62 109 77
  0.2275 -1.46655  2.99205 42 101 57
 0.540258 -0.890343   3.18573 38 79 45
 0.233047 -0.713059   2.99351 34 79 48
 0.208828 -0.683589   3.00654 46 85 54
 0.186515 -0.307414    3.0158 25 71 42
0.271126 -1.23505  2.96936 77 87 63
-0.0317148  -0.386883    3.14907 46 90 54
0.11226 -0.3295 3.07035 26 71 40
0.138816 -1.55208  3.04725 50 98 58
-0.787017  -1.60423   3.57812 63 103 69
-1.03007  -1.4659   3.7234 46 81 51
-0.455926  -1.52143     3.389 47 105 64
-0.876306 -0.508081   3.63383 59 106 70
0.176586 -1.54128  3.02395 67 120 74
 0.114515 -0.319682   3.06372 28 73 42
0.0141596  -1.48549   3.12245 37 89 50
-0.0379679  -0.412386     3.1547 39 81 45
-0.578081 -0.726653   3.46332 90 125 92
-0.292798  -1.58662   3.29679 49 97 57
-0.147233  -1.09604   3.21235 42 103 61
-0.0114174   -1.65855    3.13366 63 94 60
 -0.23983 -0.218322   3.26273 45 86 52
-0.424777  -1.52048   3.37547 59 105 68
0.159096 -1.41957  3.03798 43 104 62
 0.718935 -0.751016   3.19732 50 107 66
-0.0354022  -0.948604    3.14804 50 103 61
-0.540338 -0.574121   3.44225 58 121 74
-0.434079 -0.732573   3.37673 51 109 68
0.134399 -1.23081  3.05113 44 96 57
-0.827804 -0.662403   3.60498 78 115 81
-0.0276112   -1.25128    3.14053 53 111 70
-0.663443  -1.33963    3.6412 40 87 53
0.262958 -1.50011  2.97679 85 115 79
-0.660038 -0.940309   3.50887 48 93 60
 -1.00485 -0.432736   3.70546 69 109 75
-0.748365 -0.386655   3.55488 54 99 66
 0.525773 -0.898108   3.19043 39 78 47
 0.116362 -0.132503   3.05719 23 75 39
-0.77103 -1.21068  3.70618 41 84 56
 0.537508 -0.676959     3.203 49 90 58
 0.203493 -0.296091   3.01448 35 82 50
 0.52681 -0.67627  3.19987 48 89 59
0.162246 -1.48965  3.03094 42 92 57
-0.215693  -1.57502   3.25092 58 103 60
-0.895021  -1.24516   3.70953 32 60 37
 0.637668 -0.996127   3.19586 41 81 47
0.548975 -0.93845  3.19739 53 83 57
 0.190431 -0.362235   3.01969 27 74 42
0.0846466  -1.52154   3.07958 42 101 55
 0.226882 -0.719571   2.99579 52 93 61
 -0.981426 -0.0202339    3.62775 174 173 168
  0.71688 -0.699434   3.19689 54 100 64
 0.528968 -0.944784   3.18743 43 73 45
-0.358041  -0.67666   3.32968 43 106 59
 0.578719 -0.704348   3.19747 50 100 62
-0.351742   -1.2025   3.32648 58 108 71
0.553367  -1.0644  3.19375 54 91 60
 0.545053 -0.869825   3.19281 36 80 45
-0.211134  -1.42091   3.24582 61 101 66
0.00981345  -0.854121     3.1204 41 93 55
0.165024 -1.22176    3.029 61 97 61
-0.0154146   -1.16578    3.13818 34 97 52
-0.0221038   -1.56871    3.14041 48 103 61
-0.0708278   -1.16369    3.17329 42 94 58
-0.199153 -0.228865   3.24295 43 80 49
-0.12967 -1.60363  3.20276 75 106 72
-0.210601 -0.203424     3.245 35 72 41
-0.710486  -0.96699   3.52318 45 95 57
 -0.35207 -0.202031   3.33776 23 68 35
-0.306442  -1.55845   3.30441 58 106 66
 0.701132 -0.814625   3.19677 55 105 70
 -0.124421 -0.0905542    3.19401 31 67 41
 0.183383 -0.699934   3.02421 43 90 54
 0.526145 -0.612083   3.19675 46 90 54
  -1.44039 -0.0169828    3.41759 194 193 189
   0.2622 -0.134564   2.97709 36 71 39
  -2.25212 -0.0308233    4.83988 209 208 204
-0.115178 -0.142896   3.19243 21 70 38
0.509034 -1.02941  3.19381 46 87 55
-0.323844 -0.799232    3.3144 42 96 62
  -1.94198 -0.0166302    4.47421 204 203 199
-0.25413 -1.32031   3.2702 48 104 59
-0.547788  -1.43692   3.57588 49 90 60
-0.016788 -0.201803   3.13104 30 80 45
-0.124151 -0.826941   3.20076 32 79 47
0.217756 -1.26195   2.9995 59 100 66
  -0.765381 -0.00858437     3.37743 178 177 172
-0.0776822  -0.734102    3.18052 42 94 56
 0.161307 -0.182909    3.0368 34 73 42
  -1.69019 -0.0127323    3.84578 205 204 200
 -0.108936 -0.0956465    3.18605 34 74 48
0.225573 -1.24011  2.99509 55 97 61
0.0838287 -0.722876   3.08426 31 82 49
 0.690133 -0.917823   3.18861 53 94 64
0.163986 -1.54229  3.03119 57 110 64
0.233963 -1.05211  2.99299 131 115 90
-0.278866  -1.31384   3.28196 47 109 62
0.232526 -3.81384  11.0316 206 205 203
  -1.13364 -0.0650899    3.79167 57 81 59
 -1.13421 -0.671457   3.78934 65 105 71
-0.392406  -1.41391   3.35161 71 116 77
-0.742911  -1.53921   3.54726 68 109 75
 -0.737802 -0.0658355    3.55682 40 79 48
-0.977188 -0.061584   3.69632 37 67 43
 2.20322 -1.24093   4.2972 93 93 93
0.0981619 -0.551932   3.06466 53 98 57
-0.455977 -0.819903   3.39546 50 97 63
 -1.03462 -0.201765   3.72073 85 110 81
-0.879612  -1.55631   3.63369 44 83 56
-0.557716  -0.63985   3.46003 39 96 55
 -0.54833 -0.817898   3.43877 49 100 59
-0.170781 -0.741419   3.22667 57 107 69
-0.0194288  -0.501705    3.13417 48 107 63
-0.110788 -0.370581    3.1873 82 109 74
-0.557521 -0.964275   3.44639 49 94 61
-0.402578  -1.46635   3.36936 64 116 77
 0.246164 -0.570321   2.98399 76 107 73
0.00863174  -0.597087    3.11622 29 79 44
-0.294893 -0.791174   3.28883 30 84 48
-0.187579  -1.18973   3.22881 46 103 58
-0.280774 -0.887307   3.28885 75 127 88
-0.718982 -0.679035   3.52325 97 117 92
-0.898225 -0.295595   3.64298 81 118 85
-0.268034 -0.837478   3.28204 75 125 88
 0.187366 -0.855516   3.01992 82 85 56
-0.475045  -1.01942   3.40212 129 112 96
0.155793  -1.5026  3.03489 36 83 47
 -1.07219 -0.170239   3.75358 86 109 81
 -0.91281 -0.589858   3.65207 89 120 89
-0.649316 -0.517351   3.49959 67 77 66
-0.641657  -1.54887   3.49931 37 82 51
0.0954141 -0.746548   3.05597 31 78 46
 0.620301 -0.723483   3.19497 89 127 90
0.0447574  -1.48281   3.10067 43 73 45
-0.263912  -1.27132   3.28312 64 110 71
-0.420014  -1.06326   3.33645 41 91 56
-0.0905232  -0.415611    3.18141 38 75 44
-0.584893   -1.4191   3.59813 38 93 53
-0.203743 -0.926336   3.24389 38 85 53
-0.558891 -0.260193   3.44695 44 91 49
-1.03184 -1.55189  3.71441 42 75 46
-0.0102222  -0.734739     3.1291 27 77 42
 0.522426 -0.922818   3.19324 40 73 44
-0.959304 -0.851118   3.67793 55 105 67
-0.960513   -0.8514   3.66885 63 109 70
-0.437165 -0.699195   3.37721 86 130 94
-1.06824 -1.42109  3.73877 40 75 45
-0.43086 -1.01987   3.3788 112 109 90
-0.311149  -1.64709   3.30473 81 112 78
 -0.99065 -0.932594   3.69916 82 120 83
-0.0893378  -0.526099    3.18076 34 84 46
-0.860153  -1.68785   3.62109 100 129 101
-0.380752  -1.24107   3.34302 75 123 85
-0.292845 -0.346101   3.30731 22 73 40
 0.572256 -0.947003    3.1947 64 98 71
0.266022 -1.36976   2.9739 46 93 57
-0.774706 -0.565937   3.57048 93 128 95
-0.746853 -0.861823   3.55834 47 98 57
 0.265091 -0.543797   2.97478 36 79 51
 -1.11771 -0.510217   3.78015 104 123 93
0.110386 -1.62706  3.06548 52 92 57
0.0296021 -0.275483   3.11887 48 90 52
-0.870572   -1.5129   3.62816 63 110 76
-0.983107 -0.470987   3.69266 44 90 54
 0.481135 -0.895765   3.19517 64 103 72
-0.492254 -0.289692   3.41458 83 119 81
0.0945906   -1.1413   3.07191 101 130 99
-0.716914 -0.732039   3.54301 76 114 77
-0.849398 -0.919737    3.6184 67 117 79
0.0456103 -0.812596   3.10708 37 82 53
-0.607336 -0.442179   3.47949 78 80 66
0.0516478 -0.717121   3.10115 32 81 51
-0.260277 -0.238704   3.27643 64 116 78
-0.916978  -1.49593   3.66022 125 130 108
-0.539854 -0.280386    3.4431 86 121 88
-0.703783    -1.523    3.5254 72 118 82
-0.373951  -1.04128   3.34293 54 116 75
-0.401566 -0.125638    3.3599 63 97 64
-0.367274  -0.64813   3.33755 59 126 75
-1.04894 -1.07196  3.73742 35 76 46
-0.258043  -1.04708   3.27803 39 96 53
-0.771475 -0.639516   3.56854 53 110 69
-0.935821 -0.211554    3.6634 56 108 70
-0.955604  -0.23018   3.68183 28 78 41
-0.681503   -1.5382   3.52061 46 85 54
-0.915947 -0.328098   3.65826 36 92 55
-0.688319 -0.398816   3.52493 76 118 82
-0.395845  -0.79736   3.35522 51 105 71
-0.959383 -0.501724   3.67527 79 123 88
-0.872762 -0.316419   3.63233 44 94 59
-0.388802 -0.273181   3.35035 44 97 53
0.0166089 -0.610718   3.11574 30 74 41
-0.242155  -1.15256   3.26608 43 90 54
 -1.0648 -1.48097  3.74061 49 84 54
-0.775527 -0.747737   3.56509 67 103 65
  -1.0809 -0.127103   3.75042 74 114 80
-0.628772 -0.084624   3.49096 63 93 65
-0.703442  -0.32189   3.53306 78 125 83
 -0.93761 -0.506744   3.67184 48 94 58
-0.79944 -1.67555  3.58846 61 90 62
-0.932017 -0.614315   3.66297 61 103 67
-0.388242 -0.179063   3.34996 61 108 74
0.0979965 -0.341157   3.07535 26 70 43
 -0.80126 -0.446222   3.58656 77 129 91
0.265492  -1.1835  2.97251 137 117 90
-0.562523 -0.449681   3.45389 92 132 97
-0.110114 -0.879053   3.18776 29 78 46
-0.362826  -1.65374   3.33825 62 102 68
-1.10425 -1.47158  3.76781 43 76 47
-0.822488  -1.57438   3.60332 65 109 74
-1.02842 -0.52694  3.71452 72 122 84
-0.00329098   -0.100548     3.12973 42 96 60
-0.935142 -0.977285   3.67023 77 112 80
0.0849887 -0.546377    3.0797 102 129 96
-0.171064 -0.108714    3.2322 26 73 41
 -1.05132 -0.202236   3.73392 61 87 58
-0.985189  -1.37189   3.69009 53 90 59
-0.581782  -1.22548   3.59445 63 107 72
 -0.71607 -0.528765   3.53985 52 104 68
-0.231279  -1.53109   3.26323 73 122 77
-0.726115  -1.35088   3.68022 76 113 82
-0.199706  -1.43622   3.24281 77 119 83
 -0.30506 -0.170135   3.30175 56 100 67
-0.0440244  -0.740744    3.15492 29 84 45
  0.20353 -0.232912   3.01111 21 72 39
-0.548378 -0.467279   3.44571 40 99 55
-0.899178 -0.564352     3.643 58 96 59
-0.981298 -0.410454   3.68968 83 120 87
-0.994996  -1.21192   3.69795 74 102 77
-0.70646 -1.30773  3.66982 68 109 77
-0.594788 -0.940234   3.47575 61 109 71
-0.64418 -1.12256  3.63998 52 102 67
-0.490785  -1.00256   3.41012 51 95 62
-0.980871 -0.839048   3.68969 59 107 69
0.141908 -1.57007  3.03992 49 99 62
-0.0660055   -1.62817    3.16258 51 97 60
-0.343088  -1.58409   3.33385 66 111 72
 -0.26443 -0.529695   3.28217 28 86 45
 -0.74051 -0.302654   3.55502 82 124 84
0.669631 -1.11714  3.19663 78 123 92
-1.08792 -1.47854  3.75414 75 112 81
-0.0965432  -0.496327     3.1826 68 112 76
-0.112589 -0.214878   3.19313 43 91 53
0.168475 -1.39987  3.03106 46 96 58
-0.187404  -1.21844   3.23916 63 114 71
-0.457281 -0.444348   3.39066 52 116 66
-1.08007 -1.50855   3.7478 80 113 82
 0.495896 -0.815339   3.19281 80 115 85
-0.147137 -0.845078   3.21358 48 95 61
-0.968825 -0.578629   3.68522 54 106 60
-0.710911 -0.130588   3.53704 72 103 71
-0.711003 -0.130678   3.53713 68 102 69
-1.10145 -0.68976  3.76104 100 126 91
-0.134102 -0.135112   3.20269 19 68 36
0.0948356  -1.69015   3.07576 107 123 97
-0.6521 -0.2024 3.50132 72 113 73
-0.0980215   -0.22882    3.18559 25 71 35
-0.639775 -0.301308   3.49711 61 99 62
-0.88768 -1.60053  3.62431 57 104 68
 -1.12973 -0.311347   3.78041 84 128 92
-0.890966 -0.410957   3.63546 47 93 57
-0.818325 -0.401827   3.59668 74 118 83
-0.805704  -1.31511     3.727 74 115 85
-1.00563 -1.13932   3.7097 73 112 81
-0.531189  -1.15812   3.56933 70 111 77
-0.426694 -0.435712   3.37063 49 116 73
 0.248464 -0.128369   2.98301 51 87 59
-0.491029 -0.553573   3.41272 34 90 53
-0.0831097   -0.78594    3.17599 51 108 67
-0.470972  -1.53528   3.40025 49 96 60
-0.442843 -0.621197   3.38111 46 105 61
-0.639055 -0.755507   3.49251 98 125 92
-0.905616 -0.971603   3.64712 58 88 60
-0.599013  -1.41031   3.60432 55 107 71
-0.599353  -1.41126   3.60432 55 107 71
 -1.02797 -0.411419   3.71754 75 116 82
-1.10586 -1.38435   3.7636 82 111 80
-0.614963 -0.520346   3.47728 90 111 92
-0.210424 -0.990542   3.24639 70 111 79
 -0.12336 -0.789347   3.20002 46 101 69
 -1.05043 -0.683561   3.73506 88 124 88
 -0.47442 -0.419102    3.4019 34 89 47
 0.212545 -0.172107   3.00789 48 93 60
-0.684067 -0.207834    3.5217 68 108 73
-0.775548 -0.518033   3.57314 81 127 90
-0.776046 -0.519933    3.5696 83 127 91
-0.937639 -0.146588    3.6699 65 106 74
  -1.0069 -0.497288   3.70795 50 94 58
-1.11241 -1.44514  3.76817 73 103 77
-0.115251  -1.40029   3.18796 69 109 72
 -0.20412 -0.716097   3.25655 27 82 42
-0.797054  -1.64162   3.59477 64 105 71
-0.904151  -0.71881   3.64515 62 95 64
 0.171654 -0.719461    3.0278 72 109 75
-0.543576 -0.199233   3.43887 76 111 79
-1.03756 -1.61475  3.72207 49 78 50
-1.03633 -1.61354  3.72675 54 80 53
-0.888052 -0.298098   3.63685 83 120 87
-0.0928889  -0.695559    3.18274 52 110 72
-0.00315569   -0.554599     3.12985 61 111 73
-0.738414 -0.549767   3.55154 90 130 95
-0.712716 -0.472076   3.54259 73 124 83
-0.00175838    -1.38685     3.13011 40 88 50
-0.192796  -1.39218   3.23687 42 79 46
 0.256835 -0.485095    2.9776 59 103 70
-0.649741 -0.902918   3.50184 82 126 90
 0.278665 -0.357595   2.96262 37 81 46
 0.234577 -0.530123   2.99576 73 119 80
-0.0281895  -0.292469    3.14103 47 95 57
-0.569454 -0.400583   3.45311 54 95 63
0.246747 -0.51631   2.9846 40 84 48
0.00954889  -0.318977     3.1223 52 96 63
-0.73573 -1.68937   3.5558 44 78 53
0.075349 -1.65022  3.08191 57 87 59
 -1.11497 -0.335953   3.77063 87 125 88
-0.879955  -1.70138   3.62744 68 98 72
-0.783365 -0.450552   3.57612 36 91 51
-0.955314 -0.561071   3.67652 75 123 81
-0.814311 -0.753797   3.60056 99 124 92
-0.246284 -0.134969   3.26769 24 71 37
 -0.936029 -0.0762971    3.67019 74 103 73
-1.09489 -1.13217  3.75642 63 102 73
0.243029 -1.36268  2.98683 41 85 49
-0.233651 -0.366735   3.26268 67 108 74
-0.942101 -0.576773    3.6678 60 102 66
-0.520799  -1.23702    3.5602 67 112 79
-0.428331  -1.49905   3.38111 90 110 82
-0.820126  -1.26335   3.72876 46 81 51
-1.09512 -1.28035  3.75402 54 82 60
-0.565749 -0.767935   3.45113 87 129 89
  -0.25407 -0.0822154    3.27091 53 94 60
-0.238114 -0.840155   3.26675 33 87 53
 0.244933 -0.563978   2.98568 90 119 88
-0.648733 -0.518057   3.50431 76 86 75
0.206424  -0.6081  3.00183 69 104 72
-0.475115 -0.359046   3.40402 40 99 53
-0.152884 -0.568981   3.21758 66 112 73
-0.437178 -0.110882   3.38353 31 65 38
-0.809896  -1.35848   3.72416 44 80 54
0.651061  -1.0422  3.19428 61 104 74
-0.132541 -0.577101    3.2039 81 118 84
-1.10028 -1.40276  3.76429 74 107 76
0.0617603  -1.63435   3.09048 78 122 87
-0.829817 -0.854883   3.60452 56 109 67
 -0.65191 -0.233026   3.50264 53 106 64
 -1.07072 -0.144432   3.74398 51 85 52
 -1.03207 -0.707231   3.72813 71 102 68
-0.649131 -0.435051   3.50263 85 98 81
 0.151219 -0.782513   3.03752 98 114 85
 0.154153 -0.781091   3.04433 88 112 80
0.603957 -1.03016  3.20746 50 100 63
-0.740873 -0.192672   3.55264 66 100 63
 -1.03241 -0.386432   3.72555 48 94 57
-0.0814461   -1.33199    3.17604 30 93 50
-0.764821  -0.23303   3.56727 79 121 85
-0.765399 -0.231538   3.57109 79 121 85
-0.970991  -1.04137   3.67564 49 85 59
-0.773609 -0.823153   3.57191 92 128 92
-0.0311068  -0.830128    3.14583 51 102 69
 -1.09523 -0.282443   3.75372 70 112 76
-0.463316 -0.726229   3.39234 99 135 99
-0.463106 -0.725822   3.39329 96 131 99
-0.0554954  -0.671588    3.15573 62 110 72
 -1.11768 -0.473989   3.76983 106 127 96
 0.255315 -0.253955   2.98124 46 98 60
-0.555347 -0.754227   3.45179 64 104 67
-0.918055  -1.20081   3.65738 57 90 63
-0.191711  -1.22076   3.23829 64 110 71
 -1.11269 -0.866451   3.76628 90 122 98
-1.06878 -1.21911  3.74722 37 81 46
 -1.04029 -0.435406   3.72908 49 93 58
 0.126255 -0.281111   3.06094 29 73 40
-0.214414  -1.23498   3.25013 49 89 55
 0.136425 -0.551186   3.04806 62 109 67
-0.214012  -0.49128   3.25239 30 77 41
 -1.05056 -0.353083   3.73173 55 92 58
 -1.00459 -0.586105   3.71034 77 124 82
-0.778071 -0.260289   3.57333 46 88 50
-0.253882 -0.589975   3.27419 47 104 63
-0.539433  -0.79315   3.43817 52 97 58
-0.852597  -1.31247   3.75151 62 103 73
-0.516291 -0.594277   3.42552 46 101 61
-0.525315 -0.790443   3.42226 89 125 87
0.691715 -1.12713  3.19555 48 95 59
-0.166903 -0.759622   3.22035 67 117 79
-0.340472 -0.570422   3.32777 39 98 52
 0.519085 -0.972228   3.19699 71 105 72
  0.26691 -0.706777   2.97314 57 109 71
-0.446966 -0.411388   3.38774 31 97 51
 -0.90078 -0.444232   3.64739 67 111 78
-0.0447292  -0.746779    3.15787 30 84 48
-0.987364 -0.527283   3.69011 72 117 76
 -1.09871 -0.596543   3.76151 91 133 97
 -1.09752 -0.596017   3.75912 91 133 97
-0.277055 -0.406779   3.28906 18 76 35
-0.963901 -0.517157   3.68067 53 94 60
 0.180601 -0.902143   3.02212 113 119 91
 -1.09348 -0.558611   3.75969 57 97 60
 -1.11588 -0.547413   3.77288 83 124 84
-0.315174 -0.615927    3.3085 53 114 72
 -1.10712 -0.797347   3.76864 91 106 77
-0.0595085  -0.381592    3.16375 32 82 44
-0.388864 -0.467278    3.3539 53 116 73
 -0.81733 -0.494016   3.59807 91 128 95
-0.577964 -0.432613   3.46013 88 98 74
-0.855405 -0.537532   3.61916 73 117 81
-0.33265 -1.53325  3.32232 40 88 50
-0.343781  -0.11709   3.32843 33 66 35
-0.238935  -0.64572   3.26361 50 107 64
-1.01235 -1.59267  3.71254 74 107 78
  -0.6517 -0.362069   3.50007 88 119 87
 -1.07461 -0.376747   3.74746 75 109 76
-0.149274 -0.268136   3.20669 37 68 37
-0.00850488   -0.310737     3.13361 36 80 45
-0.000210456    -0.506696      3.12613 53 112 68
-0.522895 -0.167488   3.42746 50 90 55
-0.860989 -0.158233   3.62351 63 98 66
 -0.41249 -0.423675   3.36823 19 86 42
0.233673 -1.54449  2.99171 42 93 52
-0.325218 -0.174601   3.31468 29 74 41
-0.324472 -0.173802   3.31707 28 75 39
-0.927244 -0.609077   3.66211 60 97 63
-0.768636 -0.181227   3.57149 45 85 50
-0.30087 -1.29285  3.30073 40 98 57
 -1.01546 -0.956269   3.72159 41 83 47
-0.706044 -0.861248   3.53371 56 104 64
-0.791281  -1.14914    3.7076 35 78 48
 0.123727 -0.434229   3.05519 24 76 38
 0.232286 -0.575159   2.99349 72 109 76
 0.231345 -0.576753   2.99025 77 111 78
-0.153783  -1.42309   3.21418 63 98 65
-0.834839  -1.25449   3.74143 76 105 77
-0.494662 -0.830095   3.41056 67 115 75
-0.614611  -1.52651   3.48153 38 83 54
-0.507948 -0.553029   3.41978 60 121 80
 -0.776376 -0.0961725    3.58283 39 74 44
-0.292272  -0.18745   3.29441 26 71 38
-0.756799 -0.941007   3.56085 61 112 71
-0.748278 -0.644155   3.55992 89 126 92
-0.0312798  -0.542335    3.14313 55 112 71
 0.55345 -1.17074  3.19743 59 109 74
 -1.06249 -0.500424   3.73962 76 120 84
-0.704007 -0.757321    3.5271 97 130 99
-0.224483 -0.706378   3.25821 40 97 56
-0.965145 -0.630129   3.68309 56 101 62
 -1.03825 -0.813568   3.72951 78 104 77
-0.549801  -1.54982   3.44043 52 96 61
0.061978 -1.67567  3.09471 59 83 59
 -1.09539 -0.121869   3.75784 38 79 45
-0.868233  -0.26994   3.62587 63 110 74
-0.792654 -0.777218   3.57936 59 101 61
-0.808007 -0.794782   3.59411 54 102 62
-0.912319 -0.665685   3.65387 76 120 85
 -0.91274 -0.666067   3.65454 75 112 78
-0.240126 -0.965139   3.26491 70 115 84
-0.691128 -0.640377   3.52588 79 108 80
-0.565523 -0.789819   3.45099 72 123 82
0.211176 -1.01672  3.00799 151 135 110
-0.466862 -0.193554   3.39805 42 88 51
-0.405952  -1.04631   3.35628 52 78 51
0.0860819  -0.49852   3.07717 56 91 58
-0.231998 -0.155582   3.25723 54 90 62
-0.769822  -1.38414   3.70505 53 90 59
-0.647998 -0.714259   3.50091 72 108 72
-0.551183 -0.219234    3.4436 38 90 51
 0.266488 -0.899932   2.96775 112 82 58
0.257784 -1.69394  2.97913 62 96 69
 -0.28672 -0.229643   3.29657 43 95 57
-0.34618 -1.28976  3.32645 78 124 85
-0.421802 -0.898349   3.36681 38 92 58
-0.906323  -1.58221   3.64818 67 117 79
-0.561368 -0.168978    3.4496 76 110 75
-0.775951 -0.196119   3.57137 69 114 75
-0.378846  -1.43245    3.3493 73 119 82
-0.991999 -0.350172   3.69978 42 92 55
-0.780684 -0.571355   3.57817 94 129 96
-0.606276  -1.09001   3.61488 66 106 72
-0.239982 -0.600088   3.26631 22 78 39
 -0.74025 -0.760002   3.55353 99 125 96
-0.683826 -0.853918   3.52345 56 106 68
-0.714808  -1.63048   3.54035 48 83 51
-0.265748 -0.590602   3.27927 22 79 38
 -0.26624 -0.591546   3.27634 22 79 38
-0.135686 -0.813778   3.20426 30 76 48
-0.955463  -1.25564   3.67541 42 75 48
-0.701669 -0.709104   3.52872 97 126 96
-0.400411  -1.30453   3.35992 82 123 89
-0.01693 -1.64128  3.13658 82 118 82
-0.954174 -0.685968    3.6757 82 127 88
 0.11926 -1.20173  3.05933 89 121 80
-0.957178 -0.303582   3.67764 58 110 72
-0.592753 -0.623266   3.47368 59 106 70
-0.706411  -1.59866   3.53102 55 90 57
-0.974744 -0.357388   3.68783 60 112 74
 -1.11015 -0.903997   3.77031 60 85 56
-0.950235    -0.743   3.67169 60 97 63
 -0.348019 -0.0800088    3.32958 45 82 49
-0.348445 -0.081457   3.32619 45 78 47
0.0933002 -0.217885   3.07048 38 73 41
 -1.06808 -0.351324   3.74126 77 111 78
-0.530486 -0.352425   3.43704 79 121 83
-0.781897 -0.433952   3.57798 40 96 57
-0.86905 -1.63678  3.62484 41 84 56
-1.11176 -1.33494  3.76386 75 103 78
 -0.10479 -0.340341   3.18805 52 88 52
-0.756466 -0.942362   3.56113 67 117 80
 -0.77904 -0.662477   3.57421 83 128 89
-0.480006 -0.168348   3.40398 36 82 45
 0.274714 -0.915585   2.97006 132 96 70
 -0.11293 -0.588338   3.19262 82 120 83
-0.0315254 -0.0997313    3.14638 35 82 50
-0.320559 -0.565408   3.31232 68 103 73
-0.198408 -0.248307   3.24438 59 99 65
 0.487688 -0.690196   3.19513 41 76 44
-0.849711 -0.878068   3.61443 74 127 81
0.253465 -1.01979  2.98076 132 115 95
-0.0420522  -0.673375    3.15724 33 83 46
-1.00491  -0.2164  3.70497 51 93 55
-0.980104  -1.36481    3.6873 52 89 58
 -0.750535 -0.0908041    3.56547 53 90 59
 -0.750562 -0.0943594    3.55834 52 93 61
0.0534323  -1.45575   3.09656 62 112 77
-0.0506139   -1.31249    3.15494 60 118 77
-0.985297  -1.06363   3.69231 77 114 83
-0.352659 -0.962933   3.32824 72 117 86
-0.912471 -0.933533   3.65513 60 102 64
   -0.787 -0.645453   3.57826 53 110 67
-0.547143  -1.22041   3.57528 38 83 50
0.0387726 -0.870687   3.10405 78 108 72
-0.980223  -1.14174   3.69074 64 99 69
 -0.28427 -0.727726   3.28769 53 100 68
-0.576988 -0.781433   3.46008 54 100 61
-0.946519 -0.512131   3.68109 54 98 63
 -0.94694 -0.512545   3.67527 54 98 63
-0.250566  -1.17737   3.27048 61 101 66
-0.0501816   -1.28893    3.15724 43 99 60
-0.799586 -0.466241   3.58837 62 117 78
-0.170897  -0.68975   3.22667 38 93 53
0.629554 -1.06641  3.19341 67 104 73
-0.170456 -0.468383   3.22574 47 102 62
-0.816505 -0.309829   3.59806 61 112 71
 -1.00195 -0.367254   3.70264 63 109 73
 -1.00239 -0.366791    3.7039 62 112 75
 -1.10164 -0.226735    3.7609 77 106 75
-0.994132  -1.47629    3.6982 46 76 50
-0.0131402  -0.117691    3.13793 18 67 37
 0.138451 -0.696816    3.0463 26 75 45
 -1.04178 -0.479638   3.72484 76 124 86
-0.957146 -0.350858   3.67638 37 95 55
-0.328843  -1.01076   3.31538 50 104 68
-0.967377 -0.861719    3.6759 70 104 69
 0.0804258 -0.0844714    3.07774 29 74 35
-0.0527666  -0.404765    3.15661 53 95 59
-0.72496 -1.70704  3.54379 47 82 50
-0.335858 -0.909278   3.32296 35 80 49
 -1.05751 -0.850087   3.73381 73 107 74
-0.760884 -0.339815   3.56911 43 91 53
-0.744388 -0.434331   3.55832 57 120 75
 0.075561 -0.870909   3.08332 46 85 54
 -1.00366 -0.395292   3.70542 67 108 74
-0.644421  -0.44906   3.50052 107 117 106
 -0.52287 -0.292804   3.42904 88 122 89
-0.657805  -1.64721   3.50647 46 88 52
-0.809336 -0.477381   3.59116 41 97 58
-0.61683 -0.36791  3.48228 99 126 95
-0.746267 -0.242968   3.56156 55 95 60
-0.637656  -1.36491   3.62049 57 106 74
0.0942559 -0.480631   3.07451 59 106 70
-0.263492  -1.63199   3.28091 52 87 54
 0.100729 -0.920446   3.06826 107 95 73
-1.08677  -0.2258   3.7542 50 87 54
-0.525203 -0.525683   3.42898 59 116 75
 0.204383 -0.736487   3.00689 50 95 62
 0.206193 -0.733152   3.01075 48 92 57
 -0.54698 -0.504273   3.44781 78 129 86
-0.41264 -1.49695  3.36557 47 89 53
-1.04604 -0.80709  3.72635 94 127 96
-0.513587 -0.538871   3.42322 38 99 57
0.0946772  -1.57608   3.07262 58 108 70
-0.970624 -0.304842    3.6813 44 94 57
-0.338624  -1.64483   3.32283 78 115 81
-0.489528 -0.176016   3.41686 43 90 46
-1.09309 -1.54891  3.75521 64 86 63
0.0577722 -0.764034    3.0908 46 93 61
-0.699092 -0.825801   3.52882 88 128 93
-0.781667  -1.25353   3.70429 40 81 49
-0.605739 -0.916631   3.47637 61 105 69
-0.482458 -0.625824   3.40913 52 105 63
 0.233634 -0.804381   2.99158 103 103 77
-0.532789 -0.858538   3.42964 56 101 60
0.572587 -1.17776  3.19953 50 94 61
0.103679 -1.06649  3.06364 129 112 84
-1.00802 -1.19394  3.70859 47 82 52
-0.0476512   -1.40243     3.1561 56 119 76
 -1.05323 -0.537327   3.73414 50 102 64
-0.881843 -0.467665   3.63449 61 111 76
 0.197396 -0.652467   3.01342 91 110 82
-0.24019 -1.69291   3.2695 83 110 79
-0.858253 -0.294055   3.62188 50 105 66
-0.858794 -0.295878   3.61655 54 104 69
