ply
format ascii 1.0 
element vertex 1228
property float x
property float y
property float z
property uchar red
property uchar green
property uchar blue
end_header
 0.399893 -0.244696   3.83753 83 119 81
 0.174837 -0.843959   4.06331 97 135 98
0.888463  -1.6821  3.38011 43 88 49
0.633543  -0.8432  3.62644 38 87 55
 0.662834 -0.758107    3.5939 28 82 46
 0.185702 -0.932427   4.05485 44 99 57
-0.00353177   -0.128128        4.22 34 80 44
 0.852492 -0.181213   3.40249 31 74 46
 0.353559 -0.331298   3.88622 85 130 89
 1.05433 -1.70538  3.22198 58 103 64
 -0.10482 -0.155386    4.3226 64 90 61
 0.516647 -0.322467   3.73006 21 79 39
  1.10285 -0.268211   3.16081 40 88 48
 0.597125 -0.965114   3.65869 45 92 60
 0.927859 -0.821471   3.33974 30 83 53
  0.34177 -0.968415   3.90878 39 86 52
  1.03704 -0.104161   3.21965 48 93 60
 0.783223 -0.670324    3.4738 64 110 73
 0.229471 -0.433221   4.00614 55 101 64
 0.14787 -0.55477  4.08349 95 130 97
0.205243 -0.59507  4.03626 85 125 90
 0.633362 -0.325676   3.61426 67 108 74
 1.02239 -1.18956  3.25542 85 87 65
0.0373102 -0.988255   4.19888 58 88 60
  1.11192 -0.370658   3.15482 65 106 72
0.0819449 -0.775295    4.1527 85 123 86
 0.157792 -0.220141   4.07268 77 123 84
 0.687766 -0.660461    3.5672 70 118 76
  0.449388 -0.0451356    3.79436 35 65 37
 0.331242 -0.384713   3.90748 102 127 98
 0.382967 -0.275764   3.84963 54 100 61
 0.130287 -0.617047   4.10813 69 124 82
 1.09638 -0.24864  3.16319 45 103 62
 0.914367 -0.781201    3.3463 50 99 67
   1.0225 -0.408076   3.23797 44 104 66
0.0575018 -0.851838   4.17092 70 110 75
  1.07538 -0.195591   3.18031 48 100 64
 1.01807 -0.79703  3.24612 74 83 54
  0.922745 -0.0886253    3.33152 57 101 68
0.117214 -1.63439  4.12945 65 109 74
0.585026 -0.45311   3.6633 66 114 74
  0.74891 -0.311215   3.50055 78 108 74
0.0106563 -0.675566   4.22591 51 95 59
-0.0310262  -0.300064    4.25884 39 94 55
  1.00536 -0.367108   3.25586 38 93 53
-0.153546 -0.489482   4.39182 104 123 93
 0.320289 -0.791626   3.91661 55 108 66
 0.595284 -0.140453   3.64877 44 96 58
 0.575188 -0.547821   3.67443 35 93 53
 0.725244 -0.170011   3.52196 25 68 40
  1.07606 -0.429582   3.18515 28 78 43
0.720735 -1.32713  3.54756 60 119 71
 0.836724 -0.627122   3.42203 48 106 65
 0.324472 -0.166624   3.90875 62 111 66
0.977708 -1.16663  3.28883 112 116 91
 0.992866 -0.151869    3.2686 30 73 43
0.0712535 -0.645765   4.17113 51 104 60
 0.566723 -0.109565   3.67251 56 100 67
0.619238 -1.29226  3.64177 80 122 86
 1.03152 -0.64747  3.23338 69 102 71
0.668527 -0.45687  3.58273 46 102 63
-0.061717 -0.727964   4.29185 100 123 94
0.938073 -1.15757  3.32786 57 81 47
 0.428491 -0.339775   3.80945 65 121 72
0.671186 -1.51304  3.59033 45 90 51
 0.477679 -0.395145   3.76723 19 86 43
 0.978709 -0.405563   3.28112 23 70 36
 0.840515 -0.714437   3.41918 24 78 42
 0.791225 -0.590979   3.46146 35 87 49
 0.594208 -0.557765   3.65588 55 116 72
 1.10305 -1.40832  3.16982 73 124 81
 0.853264 -0.270054   3.40108 52 96 63
  0.213926 -0.0183331    4.01412 58 96 59
 1.01521 -1.23627  3.25389 58 84 55
0.574844 -1.52361   3.6912 59 104 65
  0.64364 -0.532398   3.60859 26 83 42
0.915766 -1.68066  3.35617 42 86 51
 0.379026 -0.426086   3.86257 70 123 81
 0.587365 -0.263237   3.65222 51 106 66
  1.04975 -0.888254   3.21794 136 119 91
  1.08784 -0.694675   3.17775 57 109 71
0.970523 -1.21941  3.30303 90 121 87
  0.65812 -0.310022   3.59386 46 83 49
 1.02805 -0.95709  3.23875 111 97 70
 0.826158 -0.442006   3.42799 26 85 41
  1.11537 -0.294381   3.14727 48 95 53
0.962095 -1.25607  3.30578 80 120 83
 0.629694 -0.347594   3.61788 57 107 70
 0.195126 -0.170945    4.0319 41 81 46
 0.88143 -1.32594  3.38641 39 80 46
 0.886655 -0.207468    3.3634 48 92 56
  1.09362 -0.467763   3.17381 39 80 48
 0.337888 -0.766239   3.90555 87 129 89
 0.334197 -0.745656   3.91142 66 107 67
1.11535 -1.6989  3.1604 55 101 64
 0.913889 -0.025431   3.34186 62 108 71
0.674537 -1.70439  3.58549 83 117 80
-0.111853   -1.5661   4.35066 80 113 82
 0.429234 -0.225091   3.80798 80 127 83
0.981339 -1.62617  3.28885 49 99 62
  1.0669 -1.11638  3.21316 147 127 103
-0.123046 -0.473482    4.3482 54 89 56
0.951416  -0.4385  3.30804 51 108 65
 0.627222 -0.276554   3.62163 29 73 38
0.948552 -0.19337  3.30862 34 76 40
 1.07253 -1.33376  3.19645 41 106 63
 0.649323 -0.422786   3.60186 37 85 47
0.807809 -1.52459  3.45656 57 99 63
-0.156266 -0.423763   4.38444 97 123 88
0.774794 -1.37637  3.49246 34 92 51
  1.48929 -0.645734   3.32941 65 115 78
  1.05503 -0.875989    3.2127 101 83 59
0.948483 -1.67981  3.33223 50 96 57
 0.767542 -0.491022   3.48405 38 86 48
 0.591505 -0.540945   3.65709 55 113 73
 0.418499 -0.493452   3.82708 59 120 79
-0.00276627   -0.396096     4.22219 49 93 58
 0.101615 -0.210114   4.13684 35 85 48
 0.970227 -0.937503    3.3032 123 112 90
 0.937404 -0.287004   3.32407 24 69 40
0.402418 -0.38655  3.83918 67 122 82
 0.993108 -0.928934   3.27419 91 100 73
 0.313778 -0.867644   3.92813 96 130 97
 0.483422 -0.478641   3.76296 51 102 59
 0.528071 -0.569872   3.72012 56 115 71
0.847784 -1.38071  3.41878 36 94 53
-0.128167  -1.15965   4.36301 61 97 69
   1.01625 -0.0692794    3.23884 45 86 56
 0.154325 -0.538801   4.07171 95 132 98
  0.210645 -0.0988381    4.01058 45 82 48
 0.568837 -0.196627   3.67331 60 101 67
0.720593 -1.02814  3.53906 32 90 52
 -0.157095 -0.0809223    4.37567 76 111 78
 0.201561 -0.507226   4.03499 52 104 68
0.588309 -1.04549  3.66869 54 122 75
  1.00642 -0.582027   3.25661 59 106 72
 0.936148 -0.502173    3.3258 50 88 49
 0.304786 -0.997277   3.94518 49 86 55
  1.07358 -0.781007   3.19095 73 75 51
 0.998214 -0.131147   3.25543 32 71 40
  0.6453 -1.09657  3.61182 34 95 53
  1.04678 -0.123195   3.21315 55 96 64
 0.433161 -0.414635   3.80482 52 116 66
  1.08064 -0.405213   3.17857 24 76 40
0.0486679 -0.204909   4.18216 68 118 81
 0.901403 -0.263346   3.35399 51 97 60
  1.07018 -0.968434    3.1947 130 112 88
0.922578 -1.39173  3.34389 36 81 42
0.50994 -1.1538 3.74519 57 118 76
0.567794 -1.47147  3.69162 48 96 58
 0.344674 -0.277827   3.88819 76 118 80
 0.933357 -0.219922   3.31995 40 86 50
 0.705156 -0.136897   3.54075 20 65 34
 0.859005 -0.933792   3.40239 53 87 50
  0.7018 -1.12856  3.55841 33 89 50
  0.872972 -0.0629225    3.37881 41 84 56
 1.08343 -1.12216  3.18938 148 122 99
 0.799564 -0.227968   3.45528 27 77 39
 0.723647 -0.191196   3.52418 26 69 41
0.898628 -1.38945  3.36743 51 110 64
 0.830163 -0.917046   3.42934 57 91 58
 0.444139 -0.752353   3.79874 42 99 56
0.0498126 -0.950846    4.1867 87 129 93
 0.915894 -0.427384    3.3382 74 120 84
-0.0408277  -0.244018    4.26852 72 118 82
 0.188565 -0.337915    4.0434 51 92 60
-0.0910451  -0.571423    4.32013 53 96 53
0.773436 -1.33703  3.49319 59 117 76
 0.875099 -0.685268   3.38547 28 81 51
0.965901 -1.51215  3.30554 33 89 50
 0.539098 -0.312344       3.7 44 105 63
 0.540615 -0.789839   3.70325 38 95 60
  0.618829 -0.0703501    3.61971 24 71 37
  1.07076 -0.846034   3.19564 125 111 84
  1.12511 -0.240278   3.14817 51 109 68
 0.181759 -0.530478   4.05075 90 130 95
 0.987793 -0.639082   3.27703 33 73 39
  1.11675 -0.609909   3.15391 37 82 49
 0.818624 -0.831228   3.44303 51 102 69
0.898971 -1.32293  3.36801 56 102 66
  0.112282 -0.0370714    4.11027 53 88 58
  1.01644 -0.548104   3.24686 47 99 63
0.802997 -1.35591  3.45947 54 115 73
0.684103 -1.03843  3.56749 39 96 55
0.643326 -0.24693  3.60335 53 99 62
0.912347 -1.55741  3.36001 51 107 68
 0.742763 -0.129688   3.50524 22 67 36
0.557023 -1.24551  3.70016 55 110 70
0.796554 -1.62338  3.47126 71 116 75
 0.739342 -0.182523   3.51022 50 98 60
  0.516795 -0.0874022     3.7216 66 106 72
 0.165814 -0.563406   4.07148 50 100 62
0.863739 -1.68459   3.4029 66 106 69
-0.11896 -1.35215  4.35602 71 110 79
  0.230545 -0.0703247    3.99959 71 106 73
-0.0484073   -0.85457    4.28242 95 131 95
  1.01905 -0.482533   3.24477 27 81 47
 0.771862 -0.361176   3.49514 38 75 41
  1.05266 -0.446752   3.20889 55 104 72
0.690394 -1.40765  3.57537 76 116 82
-0.0305932   -0.41587    4.25383 77 121 86
 0.240106 -0.447523   3.99772 102 126 102
 0.356415 -0.380677   3.87478 41 102 61
 0.644962 -0.565127   3.60916 49 100 59
 0.191307 -0.491741   4.04525 80 135 96
-0.0832257   -1.06908    4.32038 71 99 74
 0.727305 -0.678323    3.5243 69 119 81
-0.0577459  -0.511041    4.28427 46 97 56
  1.47952 -0.635232   3.32948 39 89 52
-0.00885733  -0.0479548     4.22841 42 77 47
 0.7415 -0.7657 3.51763 29 87 49
0.794447 -1.27319  3.47092 52 109 68
 0.942699 -0.416479   3.31439 38 86 46
 0.636927 -0.994931   3.61927 43 90 58
0.351481 -0.14165  3.88614 75 109 76
 0.950801 -0.487659   3.30749 33 83 45
  1.07937 -0.833715   3.19065 94 83 63
 0.768059 -0.561189   3.48668 33 96 51
 1.11474 -1.71252  3.16935 79 123 87
 1.01031 -1.17436  3.25841 116 114 89
 0.490981 -0.417381   3.75665 45 112 68
0.967743 -1.20523  3.30194 75 96 65
 0.625988 -0.687432   3.62546 26 78 40
-0.0568878  -0.936188     4.2872 55 92 58
 0.995836 -0.955912   3.26924 135 123 97
 0.556026 -0.063159   3.68325 35 72 41
0.0958696   -1.7466   4.15307 60 90 62
   0.3697 -0.109826   3.86129 50 90 55
 0.408808 -0.110292   3.82611 36 82 45
0.529816  -1.5671  3.73204 49 89 55
 0.597503 -0.279124   3.64701 26 78 40
 0.259861 -0.730621   3.98484 70 116 77
 0.884326 -0.618785   3.36812 37 77 50
  0.866227 -0.0315131    3.38275 39 86 52
 0.562923 -0.759413    3.6916 29 82 52
0.601641 -1.50353  3.66034 46 90 55
-0.0775756   -1.12155    4.31634 65 99 72
 0.472749 -0.184709    3.7692 25 82 41
 0.381736 -0.743091    3.8618 85 130 89
 1.04939 -1.56021  3.22719 54 94 57
0.602196  -1.1439  3.65764 40 101 59
 0.950605 -0.885463   3.31214 52 83 52
1.04551  -0.761 3.22344 76 95 63
0.645341 -1.23631  3.61489 74 113 82
 0.195123 -0.424421   4.03872 46 105 57
 0.134788 -0.768113   4.10412 64 98 63
 0.501497 -0.488978    3.7464 62 123 79
0.702697 -1.68363  3.56337 76 116 79
0.945108 -1.12953  3.32925 104 93 71
0.774408 -1.45298  3.48939 56 104 66
  0.457223 -0.0195285    3.78374 53 83 55
-0.0888523  -0.430503    4.32302 72 118 82
 0.83574 -1.49659  3.43326 43 85 49
0.929723 -1.18537  3.34028 55 89 56
0.946187 -1.26385  3.31834 48 101 57
 0.296162 -0.271921   3.93449 85 121 83
  0.365866 -0.0927737    3.86309 76 114 77
  1.02567 -0.388608   3.23393 38 99 58
 0.835638 -0.261709   3.41628 35 79 43
 1.10793 -1.27771  3.16431 103 111 88
0.0260116 -0.902445   4.21114 72 107 74
0.727769 -1.39449  3.53579 54 91 57
 1.07952 -1.52529  3.19651 73 115 79
0.823988 -1.22238  3.44589 49 107 66
0.939914 -1.08825  3.32154 129 112 84
 0.93925 -1.08809  3.32215 128 106 82
 0.812288 -0.430945   3.43958 62 113 72
-0.0537401  -0.671398    4.28367 54 99 60
0.214044 -0.42646  4.02378 70 131 87
0.953753 -1.23484  3.31268 89 121 80
-0.0793948   -0.35416    4.30465 47 91 55
 1.02183 -1.03689  3.25209 125 108 88
0.975633 -1.41559  3.29592 64 112 74
0.733219 -1.22867  3.53241 45 103 62
  1.06832 -0.520951   3.19426 69 109 74
0.417253 -0.38335  3.82238 33 88 48
 0.528389 -0.465329   3.72035 63 113 75
 0.421836 -0.137254   3.81618 43 87 51
-0.0299698   -1.69208    4.27252 52 88 60
  0.924152 -0.0377932    3.33302 34 80 43
0.967866 -1.15058   3.3009 96 94 69
 0.930493 -0.157313   3.32642 35 72 39
 0.754514 -0.792986   3.49513 27 84 43
  0.355824 -0.0582933     3.8786 63 103 66
0.931526 -0.44657  3.33303 59 106 70
   1.0117 -0.761695    3.2447 77 97 70
0.867486 -1.31682  3.39594 57 103 67
 -0.08009 -0.915541   4.31252 45 89 56
 0.592586 -0.719165   3.65813 52 98 69
0.0742395 -0.564882   4.15142 52 96 60
   1.0846 -0.789492   3.18561 101 101 77
 0.52567 -1.37925  3.73023 72 118 79
 0.244218 -0.422512   3.99272 97 120 94
 0.433287 -0.468161   3.81115 46 111 69
 0.850515 -0.519476   3.40631 24 82 42
-0.0930616  -0.474457    4.32321 50 100 62
 0.609421 -0.542591   3.63769 31 89 48
0.762157 -1.41171  3.50083 45 102 59
 0.495817 -0.215427   3.74147 53 106 60
 1.05895 -1.60666  3.21474 42 93 52
 0.707262 -0.374735   3.54556 49 90 46
  0.97172 -0.684345   3.29043 26 75 45
  1.01487 -0.638867   3.24358 66 85 57
-0.0606103  -0.906411    4.29106 79 114 84
0.182302 -1.76028  4.06671 86 116 88
  1.07086 -0.554151   3.19269 85 111 82
 0.370066 -0.701431   3.88232 66 112 75
 0.938083 -0.779769   3.32174 32 81 49
0.202749 -0.46045  4.03369 81 129 89
 0.932024 -0.861277   3.32997 46 86 59
  0.195993 -0.0392977     4.0341 56 93 59
0.919573 -1.72302  3.35118 60 89 59
0.877569 -1.40443  3.39153 37 98 56
 0.900914 -0.100735   3.35372 36 81 48
0.930893 -1.71424  3.34033 86 111 82
  1.03686 -0.821256   3.22741 108 109 78
0.706889 -1.27893   3.5465 35 91 54
0.00123477   -1.69473    4.24379 67 107 73
 0.755416 -0.360396   3.49916 73 111 74
 1.07597 -1.25878  3.19516 71 85 60
  0.554532 -0.0250475    3.68359 28 67 36
 0.192817 -0.538554   4.04914 44 97 55
 1.03058 -1.51336  3.24003 30 91 49
-0.0421569  -0.366048    4.26396 47 87 53
 0.100082 -0.905201    4.1389 46 97 54
  1.04178 -0.458096   3.21839 32 86 52
    1.092 -0.450659   3.17332 36 77 47
0.575006  -0.8723  3.68033 63 115 79
0.553191 -1.02937  3.70587 50 102 63
 0.373685 -0.783416   3.87194 88 131 88
    0.613985 -0.000470076      3.63304 51 90 59
 0.744157 -0.267349   3.50631 32 80 40
 0.963482 -0.485273   3.29896 57 104 68
0.868043 -1.29504  3.40155 41 88 52
 0.359558 -0.934344   3.88902 66 123 82
0.641207 -1.46334  3.62356 65 107 67
 0.927154 -0.873996   3.33743 70 105 75
0.368906 -1.66133  3.88584 52 98 62
 0.155513 -0.801503   4.08348 72 106 71
0.0664837 -0.938774   4.17244 57 102 63
 0.714706 -0.874545   3.53805 31 78 46
  0.708202 -0.0856613    3.54476 21 66 35
0.0546907  -0.96612   4.17684 60 97 64
0.904909 -1.13802  3.35986 35 87 51
0.0863756 -0.507282   4.14387 47 95 57
 0.703484 -0.518046   3.54901 54 109 67
-0.0860796    -1.1838    4.32499 62 96 69
  1.34267 -0.658357   3.36071 45 80 48
 0.325794 -0.243457   3.90918 74 121 77
 0.520655 -0.505326   3.72855 66 125 81
 0.64395 -1.68406  3.61738 71 108 74
-0.0707258   -1.08382     4.3034 43 79 51
 0.584062 -0.277205   3.66095 46 101 61
 0.412516 -0.126667   3.81815 63 109 70
0.707501 -1.23347  3.55569 38 93 54
 0.837488 -0.948506   3.43009 63 101 64
0.945363 -1.22985  3.32187 65 100 58
-0.000700159    -0.560909      4.22989 60 102 66
  0.658758 -0.0536168     3.5787 40 81 51
-0.0989471  -0.820763    4.33735 83 107 81
0.811539 -1.41246  3.45294 55 118 73
0.946269 -1.73142   3.3254 70 101 67
 0.48466 -1.65829   3.7756 79 117 76
 0.143035 -0.103473   4.08175 63 100 67
 0.78607 -1.13872  3.47622 54 112 71
 0.641704 -0.356609   3.60641 36 86 49
  0.415385 -0.0763154    3.82057 24 69 38
  1.00489 -0.436122   3.25661 34 91 56
  0.47771 -0.689199     3.771 60 117 72
  0.853487 -0.0246869    3.39688 21 70 38
 0.209453 -0.906816   4.03043 52 104 65
 1.07795 -1.45951  3.19585 39 97 56
0.594497 -1.07546  3.66141 60 119 75
0.781643 -1.25589  3.48402 37 81 46
-0.111639 -0.603511   4.33878 60 105 66
 0.802977 -0.718425    3.4593 35 85 50
    1.1161 -0.0749786    3.14601 30 70 44
 1.10587 -1.68409  3.16715 52 98 61
 0.324204 -0.967739    3.9156 65 115 80
  1.37386 -0.662821   3.36618 50 90 56
  1.10171 -0.832882   3.16164 98 83 64
 0.308495 -0.650585   3.93259 93 128 95
 0.574669 -0.384499   3.67414 50 106 67
 0.758932 -0.632177    3.4963 47 105 64
-0.118988 -0.237783   4.33776 48 88 54
 0.643668 -0.698306   3.60653 42 97 57
 0.808435 -0.660539    3.4513 36 84 44
 0.54647 -1.46028  3.72097 64 114 76
 0.616544 -0.571018   3.63293 52 109 66
 0.834498 -0.105308   3.41634 34 83 51
  1.09406 -0.606958    3.1679 33 85 49
0.754679 -1.55885  3.50518 70 105 72
  0.990457 -0.0893985     3.2621 30 69 38
 0.669672 -0.487037   3.58542 47 103 64
 0.428137 -0.788619   3.81966 47 95 57
  0.277729 -0.0417137    3.94541 34 71 40
 0.732946 -0.319856   3.51241 64 89 57
  0.512995 -0.0640169    3.72777 44 81 48
  1.10681 -0.615758   3.16177 53 100 66
-0.135897 -0.426617   4.35817 64 95 63
 0.509186 -0.405676   3.73683 25 83 43
 0.990729 -0.397896   3.26722 33 89 52
0.0251363 -0.790072   4.21164 62 99 65
 1.03948 -1.68392  3.23464 72 117 74
 0.585492 -0.429121   3.66513 69 110 76
  0.32596 -0.936469   3.92019 52 100 62
0.746874 -1.38679  3.51442 63 109 72
 0.628888 -0.917637   3.62916 54 108 74
 0.208951 -0.304041   4.02411 44 95 54
 0.545504 -0.918939   3.70959 38 81 51
0.958828 -1.57138  3.31276 60 112 74
  0.31959 -0.815006   3.92499 78 123 82
0.718041 -1.49472  3.54567 82 113 81
  1.03796 -0.984604   3.22976 125 108 82
-0.098437 -0.982539   4.33592 49 82 51
  0.28697 -0.483483   3.95607 104 118 103
 1.06667 -1.72823  3.21024 64 106 66
0.130975 -0.83206  4.10889 65 116 75
  1.03726 -0.966626   3.23053 143 126 98
 0.850743 -0.472167    3.4156 53 112 66
 0.116164 -0.234499   4.11552 57 107 70
 0.955442 -0.518921   3.30083 43 94 51
0.573205  -0.2163  3.67384 23 78 39
 0.240625 -0.645766   3.99317 98 122 96
  1.04639 -0.938588    3.2298 142 123 90
 0.555659 -0.544878   3.69279 61 111 74
  1.08752 -0.648667   3.17223 33 78 47
0.962004 -1.13451   3.3045 125 118 92
-0.0649355   -1.16794    4.29594 46 80 53
0.917407 -1.59827  3.35758 47 106 62
0.862427 -1.37887  3.40366 51 112 70
 0.953971 -0.776362    3.3071 65 104 73
-0.074834   -1.4955   4.32039 48 83 53
 0.323329 -0.683236   3.92148 100 130 96
  1.05021 -0.294132   3.20642 37 86 54
 1.01922 -1.40725  3.25143 79 108 78
  1.02459 -0.906018   3.24344 104 103 73
  1.59669 -0.660424   3.29615 63 115 76
0.383444 -1.65132  3.87087 75 117 81
-0.106798  -1.17059   4.33822 42 76 49
0.32816 -1.6653 3.92844 45 97 59
 0.658283 -0.910232   3.59793 36 81 50
  0.21382 -0.737567   4.03042 70 108 69
0.583718 -1.01947   3.6688 40 102 61
0.687138 -1.71176   3.5807 63 97 60
   1.05646 -0.0435969    3.19982 27 67 41
 0.378639 -0.233164   3.86443 63 103 68
0.681468 -1.46088  3.58906 71 111 76
 0.631285 -0.706101   3.62513 41 93 55
 1.08695 -1.59799  3.19089 56 103 67
  1.01295 -0.392225   3.24359 23 81 41
0.612414 -1.57653  3.64883 46 101 61
0.990822 -1.03013  3.26433 125 108 88
  0.314401 -0.0415581    3.91204 37 77 42
 0.368293 -0.143503   3.86785 58 93 60
0.947027 -1.51836  3.32339 41 93 55
 1.08445 -1.16308   3.1812 143 117 94
 0.129405 -0.858373    4.1071 79 127 87
0.847226 -1.45235  3.42339 43 91 53
 0.116469 -0.299115   4.11529 43 90 54
 0.997969 -0.649092   3.26839 65 99 66
0.790903 -0.29529  3.46164 52 98 59
  0.433631 -0.0787359    3.80277 47 83 55
0.466381 -0.50009  3.77734 38 99 55
0.889807 -1.12658  3.37877 46 98 59
 0.33683 -1.58284  3.92307 49 88 59
 0.731586 -0.304616   3.52168 74 104 70
 0.187586 -0.278285   4.04925 46 104 56
0.561711 -1.64338  3.69859 67 113 74
 0.717552 -0.574542   3.53073 62 98 62
0.0641198  -0.89573    4.1707 89 131 95
 0.546046 -0.847015    3.7041 57 103 74
  1.08346 -0.883855   3.18826 103 77 54
 1.02673 -1.60583  3.24719 64 117 71
 0.360745 -0.973798   3.89123 57 104 70
-0.000676369    -0.419116      4.23115 46 92 56
 0.988609 -0.891568   3.27107 65 89 57
 0.554751 -0.431585   3.68985 45 103 63
 0.663832 -0.343313   3.58575 51 89 52
 0.705487 -0.344977   3.54501 69 108 64
 0.390558 -0.561205   3.84842 57 118 74
 1.09608 -1.66521  3.18172 50 98 58
0.21395 -0.7551 4.02928 97 130 99
0.985626 -1.34453   3.2854 55 106 63
 0.108741 -0.267913   4.12211 61 112 71
0.0783358 -0.325066   4.15854 53 98 67
-0.00921266   -0.679755     4.23998 82 127 88
0.977817 -1.59167  3.29565 62 108 72
 0.288088 -0.329554   3.94401 99 126 95
  0.987717 -0.0346093    3.26819 29 70 40
  0.965725 -0.0785233    3.28852 26 70 34
0.713977 -1.45385  3.54839 77 112 79
 0.592779 -0.979169   3.66774 43 92 60
 0.432866 -0.897485   3.81681 55 107 71
 0.92448 -1.26635  3.34037 61 114 72
0.956961 -1.06287  3.30719 128 111 91
0.875535 -1.50676  3.39204 38 90 52
 0.187868 -0.454372   4.04893 59 108 63
0.951529 -1.71224  3.32361 77 113 77
 1.00808 -1.00832  3.25909 128 111 91
0.872683 -1.53901  3.39852 56 100 65
 1.07692 -0.69242  3.18598 27 81 45
  0.398602 -0.0799164    3.83457 46 92 56
 0.69297 -1.01727  3.56725 60 106 67
 0.204474 -0.208581   4.02775 46 99 53
 0.508908 -0.435923   3.73538 31 92 50
0.350774 -0.76755  3.89878 63 108 65
0.689901 -1.23206  3.57139 59 115 70
 0.533577 -0.510875     3.717 51 106 64
 0.904994 -0.994398   3.36207 138 117 90
 0.307928 -0.212367   3.91696 72 113 73
 0.944679 -0.127001   3.31145 37 66 36
  0.751086 -0.0714829    3.49145 39 82 54
0.742948 -1.71214  3.53755 59 97 60
-0.0293619 -0.0411663    4.25301 56 91 61
 0.95577 -1.00577  3.31487 127 110 90
0.84608 -0.3365 3.40856 42 77 44
1.10767 -1.5107 3.16949 50 107 62
 1.01602 -1.61175  3.25587 43 99 54
  1.09406 -0.873448   3.16768 115 89 66
 0.828909 -0.410081   3.42817 41 98 55
0.913567 -1.53037  3.35487 39 89 52
 0.950319 -0.500804   3.30997 52 105 61
 0.773331 -0.352411    3.4791 63 105 67
  0.679494 -0.0260558    3.57548 24 69 38
 0.500223 -0.819923   3.75595 37 88 55
 0.680085 -0.865113   3.57599 37 82 51
-0.0568784   -1.46714    4.29705 54 84 58
 0.547535 -0.326011   3.69661 27 85 45
-0.119853  -1.44079   4.36891 48 89 57
 0.973339 -0.655948   3.27559 46 91 60
-0.0458495  -0.751539    4.27358 94 125 93
0.136823 -1.67903  4.11231 72 112 78
 0.711068 -0.623385   3.54183 50 94 58
 0.530442 -0.402006   3.72501 40 92 54
  1.55851 -0.659715   3.30912 66 104 65
0.903286 -1.67616  3.37292 55 105 67
0.791699 -1.06005  3.46562 46 107 65
 0.621103 -0.451359   3.62229 80 106 81
 0.248328 -0.670398   3.98853 104 124 99
0.666845  -1.6074  3.59398 56 102 63
 0.266872 -0.196398   3.96653 43 98 56
 0.939809 -0.440221   3.31763 34 89 47
0.813227 -1.47583  3.45449 51 106 66
 0.804465 -0.217135    3.4415 43 87 52
  1.03378 -0.402724   3.22911 20 76 39
 0.835189 -0.887286    3.4187 45 103 65
 0.513625 -0.120257   3.72578 37 81 46
 0.563098 -0.650635    3.6912 27 83 46
 0.203886 -0.717303   4.03275 69 107 70
 0.666418 -0.600722   3.57867 41 89 49
 0.475884 -0.737214   3.77293 38 93 54
  1.06668 -0.794986   3.19261 103 101 76
 0.957908 -0.299275   3.30212 43 88 57
 0.459096 -0.250663     3.784 28 94 48
 0.87586 -1.25773   3.3926 39 95 58
0.0670882   -0.2105   4.16261 42 93 52
 0.723319 -0.690017   3.53881 45 97 58
 0.387323 -0.694709   3.85171 78 125 83
 0.583017 -0.747559   3.66923 44 94 59
0.579027 -1.13199  3.67673 40 106 60
 0.44762 -0.83182  3.79573 52 102 67
 0.823903 -0.878439   3.44252 31 89 51
  0.69638 -0.239864   3.55136 44 86 50
 0.642661 -0.608424   3.60768 47 99 60
 1.06449 -1.52087  3.21048 50 102 63
0.0820635  -1.59223   4.16411 51 80 52
 0.605839 -0.751179   3.64166 31 83 47
-0.0695837   -1.55219    4.31432 52 85 54
0.751021 -1.60196  3.51079 65 103 64
 1.09527 -0.47774  3.16859 33 77 44
 1.07312 -1.47359  3.20442 48 109 67
 0.769952 -0.278909   3.48181 48 93 54
0.0480207 -0.359562   4.18727 55 102 66
0.824631 -1.50503  3.44349 69 111 75
-0.0711046     -1.343    4.31353 48 82 55
0.718264 -1.43879  3.55208 77 111 78
-0.0840409    -1.3734    4.32771 57 91 64
0.912118 -1.43706  3.35985 53 114 70
 0.824143 -0.724726   3.43353 43 93 58
-0.0986725  -0.707958    4.32922 99 123 91
0.543455 -0.22856  3.69915 26 83 42
  0.79954 -0.282151   3.45284 41 87 51
 0.334033 -0.868576   3.90924 77 115 78
  0.289889 -0.0933239    3.94201 57 102 63
0.915901 -1.37692  3.35299 56 100 64
 0.685233 -0.636772   3.57053 45 92 50
  1.02903 -0.755299   3.23486 51 80 50
  0.705779 -0.0160051    3.54395 33 77 44
0.677412 -1.23003  3.58025 49 100 59
 0.357008 -0.458726   3.88237 66 119 77
0.0754285 -0.878343   4.15854 72 119 77
 0.703533 -0.866272   3.55683 32 78 49
  0.64909 -0.205666   3.59668 53 95 59
0.921983 -1.20429  3.33889 49 95 58
 1.10318 -1.60073  3.18259 70 121 80
0.972449 -1.66384   3.3009 60 110 73
0.486921 -1.70001   3.7738 63 108 67
 0.950467 -0.344979   3.30415 38 83 50
  1.0047 -1.50602  3.27063 44 107 62
0.630346 -1.68652  3.63397 53 90 56
 0.908536 -0.155419   3.34461 27 68 38
 1.05913 -1.12909  3.21015 146 126 102
 1.07053 -1.17094  3.19559 122 101 84
0.904822 -1.37618  3.36071 40 92 53
0.0788814 -0.148821   4.14919 40 84 48
-0.0260393    -1.2648     4.2701 55 83 58
 1.03991 -0.95273  3.22681 137 120 90
 0.97594 -1.49358   3.2946 45 103 62
 1.02062 -1.53172  3.25364 57 112 73
0.376528  -1.6243  3.87708 74 111 78
 0.671618 -0.183627    3.5806 40 77 46
 0.684922 -0.151947   3.56221 27 71 38
 0.528213 -0.623261   3.72843 55 116 72
0.0837504  -1.57565   4.17562 67 112 79
-0.0398069  -0.912892    4.27273 83 109 80
-0.0782567  -0.803392    4.32107 104 123 101
0.658264 -1.68321  3.61209 56 91 58
0.932636 -1.07422  3.33159 143 121 100
  1.00152 -0.526008   3.25817 38 90 54
  0.41925 -0.732665   3.82538 73 113 78
 0.604086 -0.438472   3.64531 62 99 68
0.928693 -1.42732  3.34149 39 98 52
 0.927442 -0.254679   3.34497 35 80 47
 0.829156 -0.518465   3.43032 39 96 53
0.811979 -1.21873  3.45564 33 88 48
  0.49027 -0.832509   3.76135 53 102 70
0.980659 -1.37183  3.29169 64 109 70
1.00002 -1.0419 3.26657 136 119 99
 0.323366 -0.710588    3.9167 78 113 80
 0.877241 -0.559482   3.38134 33 82 52
0.965585 -1.49066  3.31019 53 111 70
0.557454 -1.53454  3.70479 65 106 72
 0.669995 -0.921669   3.59059 47 94 62
0.698325 -1.54551  3.56491 55 99 63
   1.0397 -0.757492   3.22265 71 96 64
  0.784635 -0.0880868    3.45941 33 76 48
 0.116486 -0.632803   4.10254 53 108 68
  0.59788 -0.731971   3.66248 29 83 47
 1.00111 -1.08789  3.26846 138 121 101
0.817954 -1.30156  3.45316 51 101 63
0.558687 -1.62425  3.70267 51 100 55
0.690932 -1.38477  3.57291 65 111 72
 0.728564 -0.520876   3.52653 50 101 60
 0.404052 -0.982611   3.84098 62 109 77
0.949306 -1.46049  3.31791 39 97 56
 0.718647 -0.537661   3.52587 57 99 61
  1.01304 -0.254895   3.23971 25 71 42
 0.948574 -0.280495   3.31829 26 71 40
0.148141 -1.66719  4.09725 63 103 69
-0.0673659   -1.51926    4.31448 46 81 51
0.816436 -1.64266  3.45016 65 111 72
 1.00739 -1.60288  3.26488 67 120 74
0.578542 -0.59137  3.66166 29 85 46
0.706709  -1.3684    3.554 61 109 71
 0.949184 -0.269522   3.31052 28 73 42
0.924501 -1.35698  3.33965 57 97 63
0.518518 -1.68445   3.7413 72 117 78
  0.19577 -0.967256   4.04881 53 105 66
0.969425 -1.24246  3.30043 68 104 66
0.703717  -1.4651  3.55192 56 98 62
0.914224 -1.09532  3.35367 86 97 63
  0.93634 -0.832889   3.32049 29 84 55
 0.625731 -0.161805   3.61494 45 86 52
0.470425 -1.57856  3.79232 59 105 68
 0.104944 -0.655167   4.12363 78 115 81
 0.452689 -0.542849   3.78516 54 115 71
 0.82251 -1.28903  3.43971 53 111 70
 0.413497 -0.824738   3.84161 49 94 61
  0.87913 -0.033966   3.37392 33 77 42
 0.801596 -0.879576   3.46037 36 83 49
  1.06509 -0.291074   3.20112 30 79 47
  1.0859 -1.55876  3.19185 85 115 79
  0.843142 -0.0772152    3.40372 31 74 46
 0.256147 -0.953827   3.99038 48 93 60
-0.0581461  -0.403594    4.28615 69 109 75
 0.672077 -0.957056   3.58171 52 97 66
0.665643 -1.26364  3.59123 64 105 71
  0.948641 -0.0612447     3.2999 23 75 39
0.685167 -1.65393  3.57346 68 109 69
0.994011 -1.54706  3.27555 42 92 57
 0.886672 -0.700662   3.37389 34 88 56
 0.308932 -0.234674   3.92355 62 107 66
  1.01839 -0.315675    3.2437 27 74 42
0.277932 -0.62254  3.95758 95 106 90
 0.907946 -0.749662   3.36051 34 85 52
0.729106 -1.16727  3.53204 36 101 58
0.610336 -1.71557  3.65206 68 99 67
 0.60671 -1.63572  3.65263 70 108 67
0.629892 -1.52784  3.62911 68 105 71
 0.389158 -0.666636   3.85768 62 121 75
0.870331 -1.23097  3.39853 42 99 58
0.0708826   -1.7426   4.18529 66 96 70
0.658629 -1.47207  3.60035 61 101 66
 1.02131 -1.73734  3.24771 53 108 66
  1.07813 -0.352368   3.18574 35 81 52
 1.00563 -1.15449  3.26603 124 116 95
0.785393 -1.19413   3.4846 42 94 58
 0.806477 -0.390611   3.44458 51 93 57
-0.0919502 -0.0792847    4.32561 46 83 50
 0.663595 -0.173004   3.58334 43 80 49
1.02024  -1.326 3.24563 53 101 63
   0.73846 -0.0763996    3.50622 21 70 38
0.619571 -1.36354  3.63657 48 104 59
 0.508248 -0.684281   3.73759 42 102 66
 0.768434 -0.525949   3.48488 39 98 54
0.881537 -1.08949  3.38786 37 100 55
 0.991318 -0.116876   3.26681 34 73 42
  0.743027 -0.0236487    3.49714 34 74 48
0.996037 -1.60401  3.27616 57 110 64
 1.05887 -1.07229  3.21185 131 115 90
0.596776 -1.35656  3.65535 47 109 62
 1.04476 -1.02647  3.29767 135 118 98
-0.160998 -0.369736   4.39712 62 102 68
  -0.176946 -0.00105386     4.40962 57 81 59
  0.73504 -0.861912   3.52994 29 76 44
 0.721774 -0.322171   3.52335 67 98 64
0.185296 -1.59809  4.05436 68 109 75
 1.02691 -1.13586  3.24618 146 131 112
   0.17673 0.00140515    4.05695 40 79 48
  1.3682 -1.04858  3.35814 24 67 37
-0.0381152 0.00406143    4.26764 37 67 43
  0.96294 -0.872502   3.29923 45 91 55
 0.410838 -0.236841   3.83133 72 117 76
 0.877119 -0.558476   3.38867 33 82 52
 0.936629 -0.524416   3.32214 53 98 57
 0.701574 -0.474482   3.54685 31 85 49
0.0403004  -0.45434   4.18145 47 97 62
 0.826282 -0.936892   3.43892 123 132 105
-0.0862512  -0.145697    4.32962 85 110 81
  1.35521 -0.935256   3.36145 31 71 45
 0.307966 -0.715108      3.94 102 119 100
0.878509 -1.09042  3.35935 39 96 53
0.0669103  -1.61622   4.18082 44 83 56
 0.341834 -0.630141   3.89525 39 96 55
 0.163879 -0.341812   4.05587 49 94 61
0.789482 -1.30842  3.46326 62 119 76
 0.778894 -0.258173   3.47172 65 107 71
 1.07186 -1.55612  3.20221 88 109 78
 0.459092 -0.100787   3.77313 31 67 41
  0.98803 -0.571318   3.27941 25 81 46
  0.41154 -0.936507   3.83698 80 126 89
 6.72601 -1.27206  7.71558 200 197 190
 0.464868 -0.471737   3.77702 78 126 86
0.126751 -1.28756  4.28404 91 117 90
0.255472 -0.95752  3.99889 52 96 63
 3.51766 -1.32695  4.06427 158 137 120
 0.346907 -0.979355   3.89887 49 94 61
-0.0182044  -0.701621    4.24936 91 125 90
 0.536188 -0.153263   3.73132 26 73 39
  1.06869 -0.545732   3.19606 83 110 79
  1.06875 -0.546292   3.19623 76 107 73
 0.851897 -0.576164   3.39811 29 79 44
 0.848735 -0.904752   3.40477 35 86 53
 0.326799 -0.342849   3.91076 57 97 60
 0.975027 -0.511171     3.279 69 112 69
-0.025597 -0.474973   4.26422 83 120 87
 0.195862 -0.670787      4.02 97 117 92
0.259861 -0.77445  3.98191 57 97 62
0.904906 -1.44956  3.36884 43 104 62
  1.02296 -0.766963   3.24236 58 87 56
 0.693879 -0.984965   3.56468 66 112 73
0.421706 -1.03876  3.83108 129 112 96
0.988147 -1.56098   3.2813 36 83 47
0.950583 -1.15664  3.31574 91 104 78
-0.120699 -0.116438   4.35329 86 109 81
 0.194751 -0.883599   4.04603 96 132 96
0.0634832 -0.314568   4.16927 87 122 92
 0.967415 -0.189707   3.29216 59 99 62
0.666143   -1.437  3.59786 50 85 53
 0.928331 -0.739201   3.31261 31 78 46
  1.0039 -1.38522  3.26552 75 113 74
 0.710755 -0.244391   3.53727 77 111 78
 0.599861 -0.605496   3.65175 24 80 43
0.0659611 -0.168425   4.16161 74 111 78
 0.88865 -1.53934  3.37988 43 73 45
  1.56335 -0.865543   3.31019 51 106 64
 0.787988 -0.926696   3.47144 26 81 49
  0.28601 -0.829294   3.96024 48 105 64
 0.857478 -0.671609   3.40155 49 107 66
0.462145 -1.08595  3.74818 41 91 56
0.225366 -1.50135  4.19834 63 113 76
  1.0056 -1.59019  3.25804 66 117 74
 0.726457 -0.215764   3.52102 24 71 37
0.361917 -1.46932  4.06495 38 93 53
0.220329 -1.20181  4.20248 51 96 63
  0.57422 -0.357538   3.67746 9 74 32
0.00844308   -1.32531    4.23247 99 123 99
0.193147 -1.16641  4.21486 85 113 88
0.293071 -1.06158  4.13407 37 81 46
0.249997 -1.15529   4.1801 38 85 51
-0.0659946   -1.61215    4.31969 51 80 52
-0.0577713   -1.40693    4.29637 77 107 81
  0.33344 -0.465225   3.90439 91 125 90
0.276333 -1.29029  4.14308 55 109 73
 0.191156 -0.615705   4.04806 42 97 57
 0.817209 -0.770056   3.44455 46 107 65
  1.41863 -0.930512   3.34967 39 74 44
-0.0156219  -0.858768    4.23572 63 109 70
 0.453075 -0.690747   3.79302 86 130 94
 0.921196 -0.906186   3.34304 62 86 50
-0.102684  -1.47144   4.33729 40 75 45
0.461691 -1.03911  3.79497 112 109 90
0.646015 -1.31678  3.61832 35 90 50
-0.037917 -0.946618   4.27527 82 120 83
 0.477622 -0.666304   3.77682 35 98 51
 0.468837 -0.164742   3.77484 66 112 75
0.0207161 -0.926222   4.21795 94 123 92
  1.05235 -0.526519   3.20944 35 81 42
 0.335228 -0.576072   3.91297 92 125 94
 0.402873 -0.898332   3.82754 47 94 60
0.176922 -1.53316   4.2432 73 110 79
  0.689936 -0.0105137    3.55411 67 111 76
 1.09086 -1.44703  3.18063 69 124 84
 0.888935 -0.999173   3.37238 97 93 64
0.0842688  -1.75671   4.16143 100 129 101
  1.09092 -0.279925   3.17921 54 101 65
0.50465 -1.2783 3.74203 75 123 85
-0.0112029  -0.784278     4.2502 115 130 107
 0.719822 -0.500398   3.53398 27 84 43
  0.83628 -0.813192   3.42343 33 78 47
0.813862 -1.44788  3.46307 56 119 74
0.442058 -1.11591  3.98052 70 93 65
 0.582785 -0.303636   3.67823 22 73 40
0.836401 -1.66943  3.40496 74 106 67
 0.336618 -0.324266   3.90788 56 92 54
 0.419891 -0.300165   3.81781 39 96 53
0.387586 -0.64165  3.85221 46 103 62
  1.46011 -0.957947   3.32385 70 103 74
 0.341686 -0.648295   3.90366 78 133 91
1.48044 -1.0056 3.33191 44 81 50
 0.148792 -0.548167   4.08336 93 128 95
  0.602689 -0.0411394     3.6397 47 91 56
0.0740083  -1.56973   4.17127 63 110 76
0.00116183    -0.9297    4.23417 54 96 56
-0.0396639  -0.447075    4.25928 44 90 54
 1.37298 -0.90153  3.35811 64 103 72
0.00836454   -1.28688    4.23327 89 122 95
 0.400577 -0.243518   3.84362 83 119 81
0.932522 -1.16961  3.33289 101 130 99
 0.360486 -0.837767   3.88149 43 91 51
    1.597 -0.714425   3.30052 98 138 103
 0.963594 -0.388386   3.30083 27 77 40
 1.02583 -1.07228  3.24086 127 110 90
0.161962 -1.54595  4.26395 48 81 52
 0.297955 -0.412494   3.94128 78 80 66
 0.618474 -0.752644    3.6331 54 106 70
 0.950164 -0.471034   3.30741 30 82 46
0.725086 -1.63968  3.54948 84 111 78
 0.235215 -0.343138   3.99321 56 96 59
 0.947632 -0.100485   3.31468 31 71 45
 0.672124 -0.829915   3.55562 29 76 44
0.0342107  -1.55152   4.21648 125 130 108
  0.35794 -0.233755   3.88614 86 121 88
0.220022  -1.5808  4.02148 72 118 82
0.129103 -1.40496  4.28634 56 102 65
  1.02127 -0.141992   3.23323 57 101 68
 0.265637 -0.804657   3.97195 99 130 96
  1.44622 -0.700275   3.33029 64 112 72
0.0889866   -1.0058   4.15281 48 85 51
   1.0818 -0.590967   3.18412 50 102 66
   1.467 -1.09033  3.33258 45 80 50
0.0699599 -0.997538   4.16918 87 117 89
0.511453 -1.06181  3.73995 54 116 75
  1.50643 -0.899361   3.32147 44 87 57
 0.163105 -0.382296   4.07009 39 93 57
-0.0158241  -0.414723    4.23928 82 126 90
  0.479823 -0.0612154    3.76046 63 97 64
-0.0867469   -1.09691    4.33047 35 76 46
 0.803215 -0.497106   3.44728 24 82 41
  1.07096 -0.620099   3.19689 31 76 43
0.0945195 -0.567291   4.14067 73 119 82
 0.677099 -0.727376    3.5885 57 110 66
0.0335082  -1.48802   4.21706 111 123 99
 0.152682 -0.629445    4.0771 53 110 69
 0.944137 -0.563123   3.31824 56 108 69
 0.474579 -0.528525   3.77269 65 127 78
-0.0158327  -0.181392    4.24991 28 78 41
0.242007  -1.5971   4.0107 46 85 54
 0.490484 -0.796694   3.76463 51 105 71
  0.05085 -0.238127   4.17688 43 87 52
  0.15227 -0.416603   4.08188 82 137 97
 0.064875 -0.271369   4.18849 47 99 63
 0.472659 -0.193478   3.76771 24 82 41
 0.493843 -0.220364   3.75231 46 97 54
 0.761162 -0.954884   3.50382 44 102 62
1.45258 -1.0382 3.34123 81 115 78
  0.86132 -0.593434    3.3965 28 75 39
  0.67522 -0.165397   3.57726 33 72 41
0.630182 -1.18212  3.62702 42 89 53
-0.0980436   -1.53548     4.3383 49 84 54
0.720022 -1.68846  3.54121 58 94 58
  0.14991 -0.743218   4.08917 67 103 65
0.723428 -1.73226   3.5412 58 89 55
0.495297  -1.5625  3.76294 50 97 55
 -0.131413 -0.0691108    4.35114 76 116 81
-0.0751215  -0.474109    4.29822 81 127 90
 0.952674 -0.176998   3.30121 69 106 73
  0.274371 -0.0183071    3.95867 63 93 65
 0.210464 -0.280976   4.02289 78 125 83
  0.34117 -0.970559   3.90251 39 86 52
0.138526  -1.7437  4.11186 61 90 62
-0.104397  -0.45554   4.33583 80 124 88
0.00943574   -0.60169    4.22146 61 103 67
 0.472346 -0.632473   3.77778 73 132 88
0.491649 -0.12013  3.74651 61 108 74
 0.934756 -0.293556   3.32759 26 70 43
 0.768952 -0.813647    3.4913 46 104 64
-0.0899288  -0.172755     4.3066 85 114 83
  1.02926 -0.173046   3.21728 29 72 44
0.375446 -1.18846  4.05127 78 119 87
0.968047 -1.33881  3.30115 38 82 49
 1.08785 -1.21451  3.18444 134 118 92
  1.02642 -0.604344   3.23522 46 76 40
0.190866 -1.66329  4.05848 54 89 57
0.132968 -1.49287  4.29283 58 83 54
 0.162248 -0.902208   4.07702 54 105 64
 0.338913 -0.419742   3.90474 92 132 97
  0.89423 -0.633051    3.3662 60 107 75
-0.398036 0.0532679   4.80637 173 170 165
0.100167 -0.31057  4.11409 47 99 63
 0.552997 -0.567644   3.69501 28 84 45
0.403091 -1.23705  4.01358 61 106 73
 0.426738 -0.624196   3.81964 81 128 86
 0.52829 -1.72274  3.74077 62 102 68
0.207715 -1.76596  4.04396 89 119 91
0.0207539 -0.228782    4.2051 34 84 47
-0.0761542  -0.503538    4.31187 70 122 83
0.240539 -0.60356  4.00208 76 94 78
0.0154194 -0.538644    4.2204 96 119 90
 0.290511 -0.961002   3.95925 47 92 59
  0.840441 -0.0276334    3.40935 42 96 60
0.0118178 -0.993815   4.22947 78 111 80
 0.922856 -0.519883   3.33836 102 129 96
-0.0404464   -0.73586    4.27305 63 97 64
  0.689631 -0.0393973    3.56361 26 73 41
 0.897556 -0.233511   3.35288 27 75 35
0.184383 -1.27048  4.23824 63 104 72
0.101193 -1.29531  4.28157 26 54 31
 0.586801 -0.830557   3.66998 34 83 51
 0.383575 -0.274282   3.85567 54 100 61
 0.522723 -0.389789   3.72209 63 118 79
-0.029683  -1.41877   4.26556 53 90 59
0.363246 -1.26162  4.06207 65 109 76
   0.33037 -0.0837387    3.88663 45 87 51
 2.10915 -1.17052  3.65647 213 212 210
 0.201606 -0.507294    4.0357 52 104 68
0.671079 -1.48821  3.59424 75 117 81
0.667458 -1.48856  3.58786 77 119 83
0.267272 -1.07132  4.15046 79 113 80
0.622145 -0.47542  3.63453 67 108 74
 0.420213 -0.156332   3.81877 44 92 52
 0.220645 -0.497395   4.01442 95 121 96
  1.10641 -0.321219   3.15768 61 112 71
0.0504562  -1.49177   4.22743 62 67 45
 0.310843 -0.687906   3.92892 103 126 97
  1.02961 -0.171901   3.22864 21 72 39
 0.351605 -0.438877   3.89213 40 99 55
0.0419776  -1.00489   4.19539 82 119 88
-0.0381912  -0.379554    4.26208 83 120 87
-0.0395553   -1.24723     4.2756 74 102 77
 0.827094 -0.439071   3.43171 26 85 41
0.253355 -1.34927  4.17081 71 110 81
0.512949 -1.58083  3.74307 75 119 83
 0.65185 -1.14875  3.60884 35 90 48
0.593978 -0.55722   3.6562 51 113 72
0.224398 -1.04481   4.1923 43 84 50
0.407267 -1.02057  3.84352 51 95 62
0.0618615 -0.303346   4.17113 92 125 96
  0.328074 -0.0498239    3.90451 68 109 67
0.544901 -1.64718  3.72777 66 111 72
 0.56389 -1.35942   3.6896 46 107 65
0.676443 -1.77189  3.59536 88 108 80
  1.58496 -0.775334   3.29964 36 88 50
-0.0121285   -1.12159    4.25081 85 111 84
 0.560496 -0.449865   3.68217 28 83 41
0.0610105 -0.679682   4.18282 55 103 65
 0.712669 -0.725324   3.54533 38 86 48
0.0824671 -0.210456   4.14196 60 111 70
 0.742317 -0.156058   3.50866 43 91 53
0.999287 -1.44972  3.27241 44 96 57
 0.613163 -0.272335   3.63604 49 99 62
-0.111496 -0.940831   4.34179 55 86 55
0.0821892 -0.182787    4.1492 39 83 47
 0.598815 -0.335437   3.65098 42 94 56
 0.432495 -0.412987   3.81009 52 116 66
 0.335236 -0.809375   3.91212 47 98 57
  1.38838 -0.813401   3.35177 83 114 82
  0.9323 -1.20165  3.33341 99 128 97
 0.710871 -0.849634   3.53516 48 95 61
  0.201354 -0.0693992    4.03134 68 102 69
-0.140467  -0.68424   4.36874 100 126 91
  0.721198 -0.0680732    3.52275 19 68 36
0.253756 -1.51439  4.16904 40 87 51
 1.40296 -1.17779  3.35339 83 119 91
 0.93372 -1.76278  3.33928 107 123 97
 0.140057 -0.391188   4.08993 81 133 95
0.238744 -1.17005  4.18516 34 79 46
 0.755396 -0.171587   3.49596 25 71 35
-0.00876015   -0.509427     4.24054 88 130 90
  0.337782 -0.0090486    3.89657 65 101 65
 0.455818 -0.443983    3.7837 31 94 51
0.971854 -1.12902  3.29857 137 123 97
 0.286953 -0.920268   3.95798 87 131 95
 0.50258 -1.36028   3.7557 59 100 66
 0.312622 -0.101614   3.91955 69 111 75
-0.0774821  -0.204186    4.29869 68 120 81
-0.171375 -0.271685   4.39683 84 128 92
 0.166999 -0.721154   4.09558 105 130 98
  0.980428 -0.0645192    3.27801 49 94 61
0.043653 -0.37783   4.1919 47 93 57
 0.107814 -0.369231   4.12152 74 118 83
0.165981 -1.35772  4.25603 74 115 85
 0.866627 -0.618845   3.39197 66 107 75
  0.371755 -0.0542371    3.85415 31 79 41
 0.459014 -0.403226   3.78095 49 116 73
   1.06977 -0.0544703     3.1842 51 87 59
0.626264 -0.27833  3.61675 29 73 38
 0.376577 -0.851234   3.86964 74 119 78
 0.446828 -0.606126   3.79799 46 105 61
0.592205 -1.27444  3.66599 48 88 53
-0.0801644  -0.649323    4.30873 59 101 63
0.985167 -1.68716  3.28857 70 122 83
 0.56109 -1.68058   3.6935 57 103 64
 0.33067 -1.08572  4.08612 67 115 77
-0.135521  -1.43214   4.37286 82 111 80
0.254263  -1.2555  4.15968 42 86 53
-0.112749 -0.175711   4.33412 80 109 78
-0.0941443  -0.677383    4.32807 88 124 88
 1.03686 -0.10379  3.21973 53 94 60
 0.823377 -0.606078   3.43469 26 81 41
 0.246364 -0.686614   3.98544 97 123 96
0.962084 -1.25573  3.30576 80 120 83
 0.972612 -0.207227    3.2823 48 89 55
 0.429924 -0.336764    3.8221 65 121 72
-0.0463168  -0.200255    4.26538 30 82 44
0.0322182 -0.268525   4.19504 79 120 88
 0.226096 -0.155082   4.00643 68 108 73
0.881779 -1.32625  3.38597 37 81 46
 0.146557 -0.498004   4.08257 83 127 91
-0.0596636  -0.474604    4.28711 50 94 58
 0.33572 -1.58862  3.91267 49 93 58
  0.215431 -0.0502798    4.01423 47 81 48
2.09164 -1.2441 3.67973 203 202 200
 0.286671 -0.168082   3.95544 73 115 77
 0.561692 -0.180407   3.68193 22 69 35
 0.665163 -0.708031   3.60415 27 82 42
0.688042 -1.59732  3.57649 84 125 91
  1.05493 -0.875773   3.21236 101 83 59
0.847599 -1.37928  3.41906 33 94 50
0.0124847 -0.914181   4.22451 102 133 101
  0.254528 -0.0730182    3.97339 68 105 71
 0.164932 -0.594786   4.08065 69 127 86
0.346564 -1.69313   3.9111 67 113 74
  1.00127 -0.709029   3.26115 72 109 75
-0.0710136   -1.67712    4.31662 54 80 53
-0.0388787  -0.709635    4.27127 57 97 60
 0.046428 -0.639625    4.1853 76 126 88
-0.0227554  -0.366914    4.24856 64 108 73
0.245208 -1.01031  3.98857 49 90 58
0.0437273 -0.255912   4.18174 83 120 87
 0.761329 -0.684928   3.49493 58 116 76
 0.842906 -0.529749   3.41536 61 111 73
 1.01673 -1.35168  3.25436 40 86 49
0.178665 -1.02499   4.0706 48 92 56
0.739274 -0.81957  3.50731 32 78 49
-0.045323 -0.971053   4.28829 72 113 79
0.930512 -1.29035  3.33884 31 87 42
0.675562 -1.44154  3.58567 42 79 46
 0.588562 -0.494778    3.6598 52 113 72
-0.0978146   -1.34204    4.33912 49 83 56
  1.39879 -0.704921   3.35421 77 111 78
  1.07529 -0.453262   3.17988 58 94 66
  1.07859 -0.450018   3.18373 59 103 70
  1.09726 -0.309365   3.15857 37 81 46
-0.079056 -0.285935   4.29932 64 114 77
0.886638  -0.9415  3.37457 97 92 63
 0.818132 -0.241189    3.4309 47 95 57
 0.330693 -0.365971   3.90496 54 95 63
 0.172434 -0.456728   4.06269 68 127 81
 0.728331 -0.871139   3.51886 33 80 48
0.197593 -1.75902  4.06391 53 86 57
  0.46982 -0.575104   3.77554 64 127 80
  0.16876 -0.539558   4.06441 61 103 67
0.414787 -1.30496  4.00601 63 106 76
0.485209 -0.59554  3.77077 40 108 61
0.198687  -0.4015  4.02968 72 131 87
  1.09834 -0.895866   3.15447 120 88 65
 0.541836 -0.388448   3.70025 63 115 77
0.291155 -1.11993  4.12579 39 86 52
 1.09668 -1.75424  3.19113 79 109 83
0.603346 -1.11599  3.65106 56 121 78
-0.158057 -0.298568    4.3826 87 125 88
0.065496 -1.77114  4.17318 68 98 72
 0.543631 -0.876289   3.70989 38 84 56
0.250268 -1.10566  4.17427 71 111 77
 0.209379 -0.639163   4.03448 101 127 100
 0.438033 -0.127193   3.80111 75 110 80
  0.14133 -0.421125   4.09575 36 91 51
 0.116488 -0.754016    4.1179 99 124 92
  0.619603 -0.0695059    3.62167 24 71 37
 1.55073 -1.12456   3.3148 34 83 51
0.920758 -1.74796  3.35127 69 89 64
 0.316912 -0.768204   3.92337 90 127 93
0.864256 -1.26015  3.40043 58 110 74
0.468094 -1.55568  3.79916 90 110 82
0.775451 -1.45499   3.4917 56 104 66
0.0595787 -0.588522   4.18054 47 95 57
0.821825 -1.19911  3.44325 40 103 60
  0.22243 -0.766201   4.01944 77 108 77
-0.12802 -1.32075  4.36008 54 82 60
  1.57808 -0.976351   3.31136 66 107 77
-0.0553192   -0.11024    4.27808 41 83 47
0.727888 -1.39447  3.53635 54 91 57
  1.06766 -0.537711   3.19532 90 119 88
 0.477022 -0.935514   3.77606 54 103 71
 0.572737 -0.426089   3.68043 31 86 47
  1.37597 -0.955374   3.35703 54 90 62
 0.837599 -0.626956   3.42384 48 106 65
 0.418827 -0.319495   3.82987 33 94 50
0.598004 -0.47541  3.64937 34 89 47
 0.708441 -0.546597   3.54709 66 112 73
0.012314 -1.16475  4.22547 48 81 54
-0.0684633  -0.670813    4.30354 85 130 91
 0.997836 -0.231818   3.25831 44 88 55
0.258198 -1.33353  4.16564 40 81 49
 0.955907 -0.419397   3.29875 49 105 66
 0.712182 -0.448581   3.54071 21 77 40
0.165323 -1.40483  4.26792 45 84 53
0.134109 -0.56587   4.0935 54 94 59
  1.5539 -1.06266   3.3146 61 104 74
 0.52718 -1.46536  3.72843 57 109 70
0.155166 -1.63583  4.09491 59 96 63
  1.01618 -0.573228   3.23192 27 79 41
 0.536375 -0.527404   3.70866 74 122 82
0.904259 -1.70274  3.36601 78 122 87
-0.102581 -0.389105   4.32862 78 115 82
 0.169239 -0.825172   4.06886 71 107 71
 0.81113 -1.69159  3.45963 77 111 76
   1.1006 -0.141031   3.16055 50 89 60
  0.10551 -0.861152   4.14151 57 110 68
 0.254891 -0.182595   3.97774 53 106 64
  -0.12159 -0.0875595    4.34417 51 85 52
0.248182 -1.47648   4.1741 57 109 71
0.687002 -1.58019  3.57637 44 88 53
-0.152528  -0.78219   4.38032 98 127 96
 0.998101 -0.131087   3.25558 34 71 38
-0.0764347  -0.703021    4.31598 71 102 68
-0.0629706  -0.429775     4.3043 46 92 56
0.249831  -1.1991  4.16996 61 105 72
0.216463 -1.08536  4.19807 37 78 48
 0.661963 -0.255452   3.58843 40 86 49
 0.749589 -0.773894   3.49889 33 90 49
  0.46072 -0.599484   3.78461 73 134 90
 0.982486 -0.778179   3.27832 98 114 85
0.954224 -1.17644  3.31054 63 76 48
 0.174788 -0.140217   4.05492 65 103 64
  1.06101 -0.179974   3.19726 27 70 40
 0.382304 -0.741438   3.86811 85 130 89
-0.0795828  -0.350569    4.32033 47 91 55
0.959971 -1.59642   3.3166 48 96 56
-0.0224304   -1.06379    4.24593 49 85 59
0.151703 -0.82855  4.07979 92 128 92
 0.120379 -0.402168   4.11624 43 95 57
 0.980281 -0.403917   3.28383 23 70 36
  1.05429 -0.637428    3.2099 78 106 81
0.970113 -1.17438  3.29906 74 83 56
  1.08555 -0.568913   3.16315 36 83 49
0.345854 -1.09253  4.07095 45 86 52
-0.142874 -0.239759   4.35966 70 112 76
 0.429192 -0.720638   3.81595 99 135 99
 0.794915 -0.658259   3.45782 62 110 72
  1.54304 -0.899788    3.3187 45 81 53
0.29474 -1.3336 4.14354 45 86 52
-0.158667 -0.449523   4.38237 106 127 96
0.0295649  -1.23522   4.21342 57 90 63
0.617773 -1.27666  3.64406 55 95 61
0.675849 -1.25603  3.58526 64 110 71
-0.148207  -0.87551   4.37722 90 122 98
-0.102721   -1.2544   4.34162 37 81 46
 -0.161399 -0.0452839    4.38802 41 81 46
0.720679 -1.02866  3.53705 32 90 52
-0.0314691   -1.01859    4.25087 38 82 49
0.655278 -1.27142  3.60385 49 89 55
 0.969425 -0.524732   3.29037 62 109 67
 0.652406 -0.462204   3.60068 30 77 41
1.10321 -1.7209 3.17863 54 95 61
-0.100573 -0.317079   4.32457 55 92 58
0.0453578 -0.268599   4.18469 43 90 56
-0.0802267  -0.669982    4.30823 58 98 61
 0.152114 -0.936102   4.08577 48 96 56
 0.324609 -0.117326   3.91188 46 88 50
-0.0302646  -0.203722    4.25456 45 100 61
  1.04004 -0.146021   3.22037 31 70 39
 0.501952 -0.135214   3.74237 28 73 40
0.855939 -1.49915  3.40814 54 102 64
  1.53252 -0.877278   3.32167 71 121 84
 0.380487 -0.578564   3.85954 46 101 61
 0.111122 -0.827743   4.13377 77 128 87
 0.373387 -0.786872   3.86827 88 131 88
0.726074 -1.47159  3.54082 58 87 56
 0.192224 -0.828962   4.04611 65 113 73
 0.620974 -0.391565   3.63068 35 90 51
 1.40893 -0.98473  3.34619 78 107 79
 0.442385 -0.376793   3.80441 31 97 51
0.0355052 -0.416136   4.19651 67 111 78
 0.423609 -0.749334   3.82632 77 125 83
0.134097 -1.52291  4.28718 83 108 79
-0.0425719   -0.50714    4.26431 72 117 76
  0.2336 -1.43491  4.20001 41 86 55
-0.0186453  -0.494388    4.25737 64 104 67
-0.134226 -0.540167   4.37082 57 97 60
-0.154683 -0.529598   4.38499 83 124 84
 0.561241 -0.599911   3.68674 53 114 72
-0.142354 -0.801176   4.37622 91 106 77
0.279596 -1.25345  4.14471 59 106 70
 0.793022 -0.339458   3.46663 32 82 44
 0.676149 -0.752148   3.58549 28 83 44
 0.494261 -0.440387   3.75118 53 116 73
 0.711829 -0.746147   3.54563 63 107 72
 0.736542 -0.333969   3.51835 86 113 80
 0.325248 -0.399843   3.91957 88 98 74
-0.022915 -0.426115   4.25597 48 94 58
0.0774716 -0.517528   4.15746 67 113 76
0.552461 -1.59265  3.71273 40 88 50
 0.805359 -0.535133   3.45319 44 101 60
0.702009 -1.61036  3.56492 59 96 63
-0.0501053   -1.65485    4.29542 74 107 78
