ply
format ascii 1.0 
element vertex 1210
property float x
property float y
property float z
property uchar red
property uchar green
property uchar blue
end_header
-1.53282 -1.18744  2.96169 62 112 75
-1.06771 -0.57651  3.08916 88 122 89
 -1.49777 -0.721866   2.97189 102 132 96
 -1.37361 -0.595461   3.00442 81 128 92
-0.709863 -0.627112   3.18516 55 95 60
 -0.59072 -0.487962   3.22014 45 95 60
-0.430049  -1.64457   3.26234 84 125 91
-0.68029 -1.20338  3.19312 57 103 67
-0.362114   -1.5403   3.27739 54 86 63
 -1.24741 -0.284088   3.03866 100 127 94
-0.938364 -0.723638   3.12616 90 127 93
-0.322963  -0.50275   3.29402 94 109 80
-0.589582  -1.61268   3.21615 84 126 88
-1.12129 -0.38002  3.07207 60 116 77
 -1.46992 -0.805005   2.97378 46 107 66
-0.605455  -1.45633   3.21555 89 126 93
  -1.6353 -0.191718   2.93066 65 102 68
 -1.37976 -0.911472   3.00444 48 103 61
-1.44514 -1.01699  2.98512 83 129 90
-1.43191 -1.12161  2.98608 84 126 90
-1.20387 -0.55313  3.05019 49 96 62
 -1.43927 -0.424122   2.98619 90 124 91
 -1.59444 -0.152428   2.94465 78 118 84
-1.14955 -0.17649  3.06373 43 88 57
 -1.14998 -0.174345   3.07024 43 88 57
-0.529854 -0.597395   3.23695 72 118 82
-0.811817  -1.30271   3.15926 76 117 83
 -1.37747 -0.768394   3.00409 101 141 107
-0.713331  -1.12972   3.18778 74 120 84
-0.136611 -0.154251    3.3468 42 92 55
-0.723718  -1.45087   3.18208 78 109 77
 -1.36576 -0.987369   3.00411 51 103 64
 -1.23771 -0.352557   3.04037 78 108 72
-0.219112  -0.11765   3.32182 76 118 82
-0.243058  -1.22265   3.31297 75 108 77
-0.157259 -0.333901   3.34073 60 101 67
-0.669441  -1.38022   3.19934 64 101 68
-0.578554  -0.96016     3.224 55 101 65
 -1.23087 -0.558974   3.04641 55 95 60
-0.482274  -1.11341   3.24886 81 125 92
-1.21276 -1.06371  3.04814 92 125 94
-0.960547  -1.21693   3.12025 52 104 66
-0.337381 -0.585898    3.2897 91 118 85
 -1.04577 -0.730032   3.09801 105 132 101
-0.218575 -0.933863   3.31955 90 122 85
-0.928017   -1.2676   3.12484 59 106 72
  -1.2738 -0.107818   3.03632 47 99 60
 -1.56942 -0.701285   2.94983 105 132 101
-0.917249 -0.551315   3.13181 51 97 61
-1.23209 -1.62558  3.04308 75 130 88
-0.0934986  -0.645323    3.35759 106 136 102
-1.13381 -1.21256  3.06876 85 114 83
  -1.4064 -0.761786    2.9949 82 129 95
-0.948484  -1.26537   3.12059 69 119 84
-0.836416 -0.626431   3.15333 65 105 70
 -1.2284 -1.33925  3.04405 69 105 67
 -1.58649 -0.639581   2.94901 85 126 82
 -1.58502 -0.640062   2.94421 85 126 82
-0.412225 -0.687556    3.2694 98 125 94
 -1.54075 -0.568868   2.96284 115 129 103
-0.821533  -1.34245   3.15549 66 106 71
-0.455763  -0.79201   3.25781 61 106 67
-1.48768 -1.52212   2.9675 73 131 90
-1.37052 -1.00313  3.00358 82 127 88
-1.57727 -1.42707  2.94629 73 125 86
 -1.56315 -0.896344   2.95083 76 122 86
-0.556332  -1.51556   3.22404 58 100 64
 -1.36074 -0.373126    3.0109 92 111 92
-0.522037  -1.46283   3.23619 54 95 63
-0.885865  -1.27394   3.13574 52 99 65
-0.630668 -0.980677   3.20855 47 97 60
 -1.09687 -0.357389    3.0789 50 105 65
-0.258999 -0.134648    3.3122 67 93 64
-0.253251 -0.746431   3.31314 58 106 68
-0.298388  -1.13868   3.29689 39 85 49
-1.37095   -1.046   3.0021 58 104 67
-0.622035  -0.21928    3.2124 135 118 98
-0.26829 -0.61577  3.30682 79 117 78
-1.11377 -1.00289  3.07455 79 126 90
 -1.47465 -0.258657   2.97861 73 104 73
-0.453296  -1.26213   3.25802 81 120 89
 -1.5134 -1.56725  2.96616 50 108 67
-0.406143 -0.624518   3.27045 98 129 97
-0.568907 -0.366937   3.22533 59 99 65
-0.431293 -0.995691   3.26281 75 110 80
-0.873407  -1.27393   3.13923 74 124 87
-0.526019 -0.965946   3.23567 67 104 70
 -1.40508 -0.726147   2.99558 77 107 79
-0.765252  -1.35773   3.16853 57 104 68
-1.59801 -1.10977  2.94257 59 109 72
-0.292444  -1.01445   3.30361 92 129 85
-1.30617 -0.97227  3.02273 67 103 67
-1.30615 -1.25654   3.0214 57 103 66
 -1.28973 -0.949056   3.02507 68 114 77
-1.21484 -1.23167  3.04657 90 124 91
-0.826482 -0.376038   3.15086 42 94 58
-0.780421  -1.35201   3.16732 62 108 72
-0.428461  -0.66803   3.26144 106 133 102
-0.519638 -0.812297   3.24419 71 122 79
-0.394177 -0.749805   3.27307 89 131 95
-1.21519 -1.34554  3.04526 96 127 93
-0.287669 -0.591783   3.30446 106 133 100
 -1.50698 -0.231837   2.96961 85 119 82
-0.444498  -1.43553   3.25594 35 87 51
-0.626501  -1.59759    3.2097 80 106 77
-0.486121 -0.383764   3.24828 74 113 82
 -1.03151 -0.453489   3.09514 55 124 77
 -1.39725 -0.966094   2.99696 65 121 82
-0.943481 -0.475135   3.12472 57 98 64
-1.40207 -1.18323  2.99757 58 100 64
 -1.23783 -0.202395   3.04428 81 118 84
-0.176409 -0.054529   3.33322 65 104 73
-1.33178 -1.46543  3.01469 76 131 92
-0.910158 -0.428215   3.13387 47 99 61
-0.530229  -1.43167   3.23437 80 120 85
-1.33967  -0.9346  3.01188 59 109 71
-0.125023 -0.391996   3.35087 89 121 84
-0.424952 -0.680847   3.26528 76 105 74
 -1.35309 -0.491749   3.01031 94 131 97
  -0.51728 -0.0701644    3.24507 139 119 95
-1.42317  -1.1963   2.9876 80 122 84
-1.27743 -0.94064  3.02822 87 120 89
 -1.03361 -0.959364   3.10053 58 109 66
 -1.03614 -0.801131   3.09581 66 102 66
-0.20194 -1.21465  3.32642 47 84 50
-0.992364  -1.00005   3.11384 68 129 88
 -0.484808 -0.0607197    3.25326 142 126 103
-0.807396 -0.989458   3.15977 55 118 71
  -1.12251 -0.0421107    3.07423 31 83 44
 -1.1524 -1.32269    3.062 85 127 91
-0.475831   -1.2915   3.25035 63 115 77
-0.475133  -1.29195   3.25398 65 117 81
-1.01775 -1.12221  3.10066 66 118 80
 -0.67675 -0.345952    3.2007 63 104 64
 -1.05178 -0.803475   3.09258 68 102 67
 -1.56634 -0.813621   2.94571 46 101 62
-1.56968 -0.17398  2.95248 57 99 61
 -1.30157 -0.791157   3.02471 51 103 65
-1.58282 -1.60797   2.9443 46 101 62
-0.788352  -1.17414   3.16065 47 99 61
  -1.4952 -0.702308   2.97284 104 130 101
-0.432272 -0.304667   3.26234 106 116 89
 -0.679257 -0.0840481    3.19619 126 108 84
-1.41291 -1.10546   2.9906 62 104 68
-1.01028  -1.1336  3.10351 51 106 67
 -1.13205 -0.783438   3.07137 59 106 72
-0.639534  -1.31491    3.2043 55 96 64
 -1.10486 -0.687206   3.07694 55 102 66
-0.761518  -0.20077   3.17236 150 118 93
-1.47488 -1.12648   2.9753 74 124 86
-0.802471  -1.60943   3.15722 58 102 66
-0.764132  -1.22226   3.17042 62 109 75
 -1.41491 -0.913289   2.99124 65 117 78
 -1.56791 -0.435682    2.9525 62 103 63
-0.949476   -1.4871   3.11888 56 98 62
 -1.49718 -0.366203   2.97418 76 118 82
 -1.02828 -0.672714   3.10214 107 127 99
-0.228127  -1.59446   3.31261 69 89 62
 -1.56819 -0.422953   2.95307 83 119 83
 -0.37322 -0.637499   3.27742 97 101 87
-0.666748  -1.13461   3.19581 79 127 89
 -1.27161 -0.519297   3.02971 65 109 74
-0.94972 -1.56539  3.11696 78 129 88
 -1.53652 -0.447051   2.96221 61 99 62
 -1.11871 -0.749289   3.07624 49 103 67
-0.964713  -1.01665   3.11558 60 105 72
-1.51123 -1.19319  2.96551 57 109 70
-0.729023 -0.585999   3.18138 79 117 80
 -1.64267 -0.470346    2.9314 86 126 92
-1.57246 -1.19925  2.95415 66 112 76
-0.706135 -0.673036   3.18705 75 116 84
-0.234972  -1.03886   3.31691 76 107 73
-0.485686 -0.603111   3.24797 51 105 69
-0.853499  -1.28261   3.14506 67 109 73
-1.23077  -1.0673  3.04144 94 129 97
 -1.52001 -0.565956   2.96537 120 130 106
 -1.18928 -0.154217   3.05993 29 76 44
-1.64423 -0.44346  2.92737 72 103 71
-1.21148  -1.5942  3.04959 81 135 86
-0.823411  -1.49304   3.15328 62 108 72
 -0.64826 -0.949725   3.20572 61 105 70
 -0.25082 -0.613166   3.31286 77 118 78
-0.740657  -1.43002   3.17892 73 107 74
-1.59192  -1.4282  2.94074 58 113 71
 -1.5915 -1.42835  2.94046 58 113 71
-0.570952   -1.5139   3.22339 87 124 90
-0.255165  -1.00209   3.31173 92 126 91
-0.837857 -0.553991   3.15254 65 107 67
-0.600962 -0.384726   3.22462 41 93 55
-0.157281  -0.46619   3.34011 77 124 88
 -1.13383 -0.329926   3.07519 46 100 64
 -1.61954 -0.704487    2.9379 70 112 74
 -0.54045 -0.830845   3.22993 67 107 72
-0.832656 -0.494422   3.15596 50 102 66
  -1.62007 -0.0812841    2.93807 69 119 81
 -1.11351 -0.368094    3.0757 46 102 63
-0.706721  -1.59385   3.18243 65 102 68
-1.60341 -0.78672  2.94735 69 120 79
 -1.42533 -0.759895   2.98972 82 130 92
-0.239037    -1.006   3.31578 86 122 86
 -0.74397 -0.182911   3.17842 144 119 97
-0.731749 -0.941038    3.1821 42 84 48
-0.767188 -0.968745   3.16884 69 119 81
-0.966956 -0.474106   3.11653 73 119 80
-0.260158 -0.601426   3.31271 72 109 68
-0.411024 -0.571432   3.26826 97 128 94
-0.687559  -1.29422   3.19206 50 100 63
  -1.62865 -0.0620129    2.93743 70 116 80
-0.996966  -1.63322   3.10804 70 106 70
-0.900812 -0.261979   3.12783 126 108 86
-0.994502  -1.60293   3.10669 83 123 86
-0.419235  -1.47472   3.26844 60 101 69
 -0.36946 -0.225216   3.27655 128 110 90
 -1.50459 -0.943288   2.96737 83 131 91
 -1.03574 -0.635517   3.09645 96 123 92
  -1.08533 -0.0598671    3.08485 101 115 82
 -1.24256 -0.177995   3.04315 49 96 62
 -1.16762 -0.784538   3.05695 69 121 82
-1.36175 -1.33329  3.00914 67 107 70
-0.880428   -1.3144   3.14083 67 116 84
-0.586673  -1.22725   3.21863 66 107 73
-1.19674 -1.31673  3.05024 69 100 66
-1.58999 -1.05419   2.9466 62 120 79
 -1.32512 -0.874042   3.01788 58 102 66
-0.112844 -0.912461   3.34862 61 86 57
-1.53703 -1.36607  2.95619 49 107 67
-0.104463   -1.0033   3.35346 61 88 57
-0.822772 -0.387436   3.15694 59 111 75
-1.65213 -1.32192  2.92615 44 106 59
-0.195844  -0.54458   3.32686 90 128 87
-0.0889235   -1.12437    3.36208 67 99 75
-0.642551 -0.627687   3.20715 61 98 65
 -1.09111 -0.142771   3.08224 68 84 58
-0.90323 -1.07986    3.132 71 124 82
-0.539023 -0.756769    3.2349 56 97 65
 -1.32474 -0.460488   3.01881 43 95 57
-1.15029  -1.0259  3.06151 82 127 88
 -1.03722 -0.922739   3.09579 51 106 67
-1.14659  -1.4534   3.0681 55 110 70
 -0.509418 -0.0471555    3.24231 127 109 89
-1.18455 -1.34664  3.05284 84 124 87
-1.12813 -1.28541  3.06973 80 115 83
-0.539766  -1.00543    3.2362 65 129 79
  -1.374 -0.53756  3.00283 86 128 90
-0.735244  -1.15538   3.18127 73 123 86
 -1.24936 -0.233771    3.0381 104 129 100
-0.958491  -1.35382   3.11647 52 115 70
-0.800878   -1.4353    3.1591 87 131 98
-0.588479  -1.24287    3.2175 80 120 86
-0.143597 -0.400372   3.34401 72 106 73
-1.20078 -1.36271  3.04982 87 125 86
-0.307201 -0.755502    3.2975 67 115 75
-0.649672  -1.54779   3.21202 87 128 88
-0.120104  -1.08575   3.35053 69 104 74
-0.118847  -1.08549   3.35192 69 106 75
 -1.52768 -0.412689    2.9583 67 101 64
 -1.64086 -0.874717   2.93093 70 120 83
-0.389986 -0.564178   3.27672 95 118 90
-0.376347 -0.128028   3.28448 80 96 70
 -1.32838 -0.623174    3.0169 73 121 83
 -1.32963 -0.622788   3.01918 73 121 83
 -1.51822 -0.304738   2.96534 97 123 94
-0.873285  -1.57243   3.13981 100 135 102
-0.345904 -0.410504   3.28569 73 102 72
-0.733994  -1.62688   3.18057 71 107 71
 -1.62495 -0.800479   2.93419 73 120 84
-0.412825 -0.672382   3.26965 102 129 98
-0.278739   -0.7005    3.3067 54 102 62
-0.896803 -0.876584   3.13221 50 105 66
 -1.24152 -0.653452   3.04045 84 124 89
   -1.611 -0.228221   2.93886 75 115 80
 -1.2954 -1.06497   3.0268 81 121 84
 -1.56195 -0.517825   2.95522 87 117 83
-0.469097  -1.32376   3.25121 69 119 84
 -1.55609 -0.551087   2.95332 82 103 70
-1.61261 -0.64979  2.93775 95 131 95
-0.645785 -0.501849   3.20574 44 94 59
-0.815608  -1.58184   3.15533 54 104 67
-0.823876 -0.687215   3.15425 73 124 83
-0.713062  -1.00596    3.1873 80 128 86
-0.137325 -0.423054   3.34552 76 113 79
 -1.63127 -0.882013   2.93635 52 102 65
-1.35157  -1.0197  3.00951 67 112 73
-1.63456 -1.02119  2.93303 50 102 66
-0.915935 -0.705985   3.13112 85 119 84
 -1.43651 -0.378039   2.98722 90 114 88
-0.96948 -0.33464  3.11595 64 108 73
 -1.26354 -0.838209   3.03861 66 122 83
-0.431189  -1.07847   3.26417 61 105 72
-0.766444 -0.617649    3.1715 73 119 82
-0.823945  -1.27095   3.15459 65 106 74
-1.06217 -1.50525  3.08802 61 109 71
-0.820718 -0.635376   3.15436 73 113 78
-0.262461 -0.991272   3.30985 75 106 72
-1.56478 -1.30014  2.94994 54 109 69
-0.21202 -0.56876  3.32723 88 126 87
 -1.10557 -0.642672   3.07706 49 105 66
-0.224321  -1.59589   3.31606 68 84 58
-0.804336 -0.572376   3.16475 63 105 67
 -0.232406 -0.0424795    3.31626 64 84 59
 -0.11785 -0.321333   3.35244 53 94 60
-0.225217 -0.318221   3.32051 42 97 57
 -1.26097 -0.941625   3.03406 77 110 81
-0.576826 -0.244815   3.22522 147 130 110
-1.54753 -1.08057  2.95764 54 111 70
-1.51434 -1.01446  2.96569 66 136 86
 -1.38522 -0.864322   3.00199 51 108 67
-0.290951  -1.44337   3.30264 46 76 48
 -1.34232 -0.723015   3.01122 63 107 71
-0.702036 -0.126431   3.19604 147 125 101
-0.835808  -0.44097   3.15248 58 101 71
-0.0907488  -0.322047    3.36001 53 97 62
-0.338404  -1.34373   3.28411 80 109 79
-0.616064  -1.14314   3.21014 63 107 71
-0.134859 -0.777875   3.34491 54 94 57
-0.617309 -0.626116   3.21421 68 104 68
-1.03576  -1.3697  3.09537 60 117 72
 -1.11004 -0.712055    3.0741 54 104 67
-1.47716 -1.54202  2.96881 67 133 87
-0.976416  -1.53359    3.1131 84 132 90
 -1.14621 -0.646043   3.07175 59 114 75
 -1.63467 -0.711259    2.9313 66 108 70
   -1.646 -0.268264   2.92911 93 122 91
-0.219678 -0.977802    3.3224 60 97 63
-0.383767  -1.58384   3.27615 80 113 84
 -1.32483 -0.860307   3.01552 74 124 86
   -1.4695 -0.0860805    2.98191 59 99 64
 -1.26766 -0.711441   3.03629 51 103 65
-0.969402  -1.14488   3.11326 61 108 72
 -1.28509 -0.524951   3.03078 54 95 63
 -1.60939 -0.450047   2.93732 74 116 78
-1.11604 -1.54516  3.08025 66 114 76
 -1.21539 -0.159404   3.04947 32 77 44
 -1.55309 -0.834303   2.95262 56 100 65
-0.642749  -1.19919   3.20546 59 106 72
-0.733128  -0.36938   3.18079 38 93 54
-0.114716 -0.161062   3.35448 43 93 58
-0.114967  -1.06805   3.35132 76 105 77
-0.897243  -1.47878   3.13382 82 127 88
-0.966012  -1.62591   3.11436 89 126 92
-1.41061 -1.15536  2.99125 65 105 68
-0.741522 -0.533145   3.17919 78 113 81
 -1.43833 -0.921236   2.98448 68 119 78
 -1.09164 -0.818967    3.0818 67 105 68
-0.829092  -1.60505   3.15309 79 125 89
-0.658518  -0.31443   3.20033 129 112 92
-1.03527 -1.01195   3.0966 69 128 84
-0.322166  -1.47833   3.28892 71 101 73
-0.477572  -1.04631   3.24962 89 118 90
-1.39571 -1.07672  2.99474 76 118 82
-0.628533  -1.06746   3.20556 75 125 87
-1.26377 -1.02685  3.03264 94 130 94
-0.509488  -1.62307   3.23728 67 104 70
-0.284733 -0.122863   3.30425 91 105 80
  -0.4067 -0.889167   3.26858 73 117 82
 -1.21354 -0.954199   3.04509 85 127 89
-0.87873 -1.37799  3.13466 57 101 66
-0.508239   -1.3105    3.2377 57 104 68
-1.11429  -1.6356  3.07377 75 104 73
-1.48632 -1.02177   2.9695 72 133 89
-0.529199 -0.736257   3.23736 63 108 77
-0.529959 -0.736342   3.23838 63 108 77
 -1.59811 -0.809212   2.94483 52 104 66
-0.707545  -1.34653   3.18881 61 98 65
 -1.63456 -0.841374   2.92859 70 120 83
 -1.06743 -0.667068   3.09184 78 118 81
 -1.00491 -0.680112   3.10912 90 110 82
-0.208881 -0.390212   3.32423 63 104 70
-0.364604  -1.58477   3.27782 74 107 78
-1.33141 -1.23186  3.01487 68 110 74
 -0.906873 -0.0579916    3.13257 125 107 83
-0.608416 -0.956793   3.21546 63 112 80
  -1.17815 -0.0874271    3.06155 72 98 71
-0.882508  -1.46996   3.13258 67 109 71
-0.694116   -1.4647   3.19008 89 115 86
 -1.36609 -0.891412   3.00807 68 123 83
-1.21217 -1.53959  3.04946 84 131 89
-0.547782 -0.646268   3.23453 59 96 63
-1.09948 -1.10103  3.07575 67 125 84
-0.985869  -1.59637   3.10833 68 110 72
-0.341305  -1.46686   3.28362 65 98 71
 -1.55798 -0.920095      2.95 59 105 68
 -1.19889 -0.359489   3.05064 79 121 85
-0.677714  -1.24995   3.19821 57 98 64
  -1.5695 -0.209177   2.94802 73 103 67
-0.383321  -1.36374   3.27516 45 84 55
-0.256251  -1.59577   3.30374 73 91 65
-0.42102  -1.1886  3.26914 54 99 66
 -1.53765 -0.214315   2.96225 69 100 66
-0.530679  -0.47507   3.23734 74 120 83
-0.881875 -0.106681    3.1417 120 103 83
  -1.4755 -0.828873   2.97463 63 128 86
-1.03437 -1.59302  3.09696 71 105 72
  -1.458 -0.78935  2.97621 41 106 66
-0.286236  -1.08155   3.30524 49 89 55
-1.28466 -1.00194   3.0274 79 110 78
 -1.40941 -0.359734     2.991 76 114 77
-0.881536 -0.157221   3.13917 141 124 104
 -1.37975 -0.986932   3.00138 66 121 81
  -1.2335 -0.845993   3.04357 65 119 83
-1.41495 -1.44425  2.99392 71 134 89
 -1.46134 -0.919511   2.97884 58 119 77
 -1.50124 -0.837205    2.9686 60 121 79
-0.914419 -0.877659   3.13107 61 119 79
 -1.28378 -0.989251   3.02656 86 127 87
-0.409938 -0.981136   3.26245 58 95 64
 -1.05266 -0.214685   3.09385 131 123 100
 -1.02051 -0.139406   3.10095 127 110 92
-1.56622  -1.2633  2.95019 53 106 64
 -1.01345 -0.119324   3.10378 122 105 85
-0.376249  -0.97708   3.27202 83 112 81
-0.705421  -1.06276   3.18555 72 129 84
-0.550875 -0.132057   3.22886 136 112 86
-0.932873 -0.341374   3.12513 60 107 71
 -1.17804 -0.915616   3.05583 54 110 71
 -0.999015 -0.0923365    3.10766 114 99 76
-1.26829 -1.22035   3.0322 58 106 68
-0.245261 -0.581858   3.31903 89 119 83
-0.499467 -0.187492   3.24567 148 130 106
-1.62129 -1.61651  2.93792 60 106 70
-0.537938 -0.528204   3.23245 57 112 73
-0.401727  -1.13299    3.2661 52 96 61
  -1.6271 -0.513641    2.9378 70 110 76
 -1.31684 -0.916878   3.01864 73 113 78
 -1.6309 -1.12426  2.93197 68 119 76
-0.282035  -1.51564   3.30662 43 78 48
 -1.11665 -0.619495   3.07387 50 105 66
-1.04058 -1.02998  3.09549 58 116 68
-1.04074 -1.03026  3.09555 58 116 68
 -1.07482 -0.192627   3.09096 127 112 89
-0.898384  -1.63997   3.13256 85 125 88
-1.48647 -1.33474  2.97087 56 113 72
  -1.2863 -0.280154   3.03103 112 126 101
  -1.34521 -0.0295552    3.01713 56 82 53
-0.510008  -1.51395   3.24107 67 104 73
-0.328037  -0.98228   3.29521 87 117 83
-0.734787 -0.467894   3.17937 45 97 61
 -0.851383 -0.0497715    3.14683 127 109 89
-0.939535   -1.2988   3.12073 54 104 67
-0.450144  -1.13866   3.25996 74 114 80
-0.734334  -1.24251    3.1768 63 109 73
-1.28222 -0.77586  3.02857 68 123 84
-0.941164  -1.61057   3.12358 70 105 73
-0.180438 -0.700648   3.33096 91 122 88
 -0.729626 -0.0743655    3.18461 139 121 97
 -1.28629 -0.701513   3.02834 63 110 74
-0.914151 -0.975084   3.12947 67 124 83
-0.733087  -1.37012   3.17498 72 116 81
 -1.49871 -0.915201   2.96562 58 115 74
-0.626801  -1.58221   3.20898 80 105 76
-0.902871  -1.56144   3.13168 66 108 72
-0.346011 -0.836732   3.28656 79 114 81
-0.455088 -0.216352   3.26029 128 112 86
-0.665753  -1.28572   3.19668 61 102 68
-0.205871  -1.25335   3.32245 61 96 66
-1.11478 -1.46354  3.07676 63 131 84
-0.881784 -0.244633   3.14251 139 122 96
  -1.2517 -0.441537   3.03717 55 110 71
 -1.43013 -0.611102   2.98828 108 127 105
-0.296645  -1.63992   3.30266 86 112 83
 -1.41627 -0.750502   2.99173 81 114 85
 -1.13763 -0.388872   3.06819 56 112 73
 -1.66137 -0.777513   2.92681 79 123 90
-0.457659  -0.36846   3.25833 69 104 74
 -0.52809 -0.352565    3.2347 104 117 89
 -1.39315 -0.767617    2.9979 76 120 85
-0.659811 -0.969649   3.20085 44 99 60
 -1.52426 -0.677902   2.96102 78 109 75
 -0.9343 -1.17788  3.12389 54 101 65
 -1.27234 -0.831702   3.03058 46 109 64
-1.52846 -1.09446  2.95789 73 125 86
-0.628885 -0.129466   3.20507 145 127 103
-0.529615 -0.585279   3.23459 49 95 59
-1.63651 -1.15382  2.92811 54 110 71
 -0.46326 -0.942629   3.25401 46 87 53
-1.49495 -1.15383   2.9705 67 124 83
 -1.1539 -1.21392  3.06327 77 111 76
-0.343526 -0.457186   3.28448 101 113 89
-0.218366  -1.50091    3.3138 40 75 45
-1.65353 -1.18671  2.93014 64 111 75
-0.606037  -1.11336    3.2134 59 103 67
 -1.46061 -0.707254   2.97703 100 131 100
-1.09373 -0.99056  3.08105 72 119 83
 -1.40982 -0.554223   2.99419 108 134 105
-1.63125 -1.60211  2.92762 76 123 87
-0.314709  -1.22681   3.29172 54 95 63
-0.600051 -0.981621   3.21632 48 104 67
-0.444306 -0.942623   3.25988 57 94 61
-0.991249 -0.455246   3.10791 59 124 81
-0.596988  -1.14483   3.22058 52 97 64
 -1.22637 -0.298006   3.04734 80 109 78
-0.851913 -0.364009   3.14577 36 94 56
 -0.688369 -0.0440146    3.19312 122 102 77
-1.23764 -1.18401  3.04021 69 111 73
 -1.34406 -0.459931   3.01434 45 102 61
-0.713582 -0.593342   3.18162 61 101 66
-0.759968  -1.50937   3.17207 76 109 78
  -1.39824 -0.0385287    2.99869 50 95 56
-0.404337 -0.432691   3.26991 64 110 74
-0.511746  -1.49561   3.24313 72 107 77
-1.57734 -1.39961  2.94702 64 115 82
-0.449277  -1.52467   3.25447 56 103 67
-0.55583 -1.57167  3.22607 80 127 83
 -1.1699 -1.27342  3.05975 64 104 70
-0.555612  -0.86526   3.23231 70 105 72
-1.28662 -0.37794   3.0247 65 115 80
  -1.36996 -0.0449986    3.00593 62 99 65
-0.241196 -0.155335   3.31602 55 95 61
-0.399642 -0.470071   3.26786 66 106 69
 -1.05251 -0.626378   3.09148 101 128 97
-0.576089 -0.879327   3.22468 61 102 68
-0.941817 -0.664596   3.12052 122 128 102
-0.312384 -0.981245   3.29559 89 127 90
-1.56932 -1.05322  2.95151 53 112 66
-0.884523  -1.56811   3.13724 70 107 73
-0.173996 -0.438801   3.33594 46 101 61
-0.58226 -1.21093  3.21823 64 101 68
-0.823252 -0.478498   3.15812 48 98 63
-0.158863 -0.430229    3.3354 54 100 64
 -1.04675 -0.589356   3.09932 108 118 93
-0.497386 -0.129148   3.24838 137 121 96
-0.904147  -1.04534    3.1373 60 121 79
-0.600134  -1.53563   3.21465 94 125 93
 -1.31122 -0.695846   3.02243 92 129 95
-1.17162 -1.18985  3.05788 67 109 71
 -1.31776 -0.136157    3.0214 44 105 63
-0.584959   -1.3541   3.22582 71 106 76
 -1.57583 -0.118452   2.94936 62 103 69
 -1.55191 -0.659244   2.95505 96 127 93
 -1.61791 -0.918915   2.93333 61 115 79
 -1.09868 -0.487254   3.08039 44 101 58
 -1.05842 -0.925663   3.09598 70 125 86
-0.917769  -1.22419   3.12732 63 113 78
-0.330511 -0.909132   3.28932 71 110 79
 -1.10408 -0.719992   3.08044 62 117 78
-1.15299 -1.19791  3.06328 70 108 71
-0.909043 -0.644078   3.13079 83 120 87
-0.466688  -1.25926    3.2551 63 109 73
 -1.50813 -0.259137   2.96489 81 112 78
 -1.28427 -0.564017   3.02994 48 98 61
-0.459588 -0.130561   3.25684 143 127 102
-0.281139 -0.913298   3.30467 86 124 87
 -1.38949 -0.148689   3.00234 74 105 71
 -1.34458 -0.749497   3.01182 83 118 85
-0.161076  -1.30687   3.33298 54 91 58
-0.999097 -0.738131   3.10862 69 106 72
-0.618288 -0.992314   3.21338 68 118 81
-0.698099  -1.55411   3.19286 67 104 70
 -0.231067 -0.0212744    3.31555 44 81 50
-0.513692 -0.936784   3.23941 71 113 77
-0.369517 -0.334932   3.28212 88 108 83
  -1.3123 -0.840505   3.01905 67 112 73
 -1.18496 -0.310321   3.06081 63 111 73
-0.563175  -1.60113   3.22342 62 114 68
-1.14511 -1.53984  3.06506 76 113 80
-0.215888 -0.737162   3.32199 91 121 85
-0.632073  -1.46623   3.20608 82 126 90
-1.34354 -1.49372  3.00993 68 118 81
   -1.0949 -0.0467573    3.08561 58 96 55
 -1.50722 -0.956774   2.96433 67 120 74
-1.42881 -1.28928  2.98749 79 123 87
 -1.54544 -0.853241   2.95679 63 103 68
 -0.1489 -1.61757  3.33903 68 101 74
 -1.37677 -0.074416   3.00601 51 102 61
-0.267598 -0.207592   3.31106 81 106 76
-1.51449 -1.58143  2.96557 74 129 90
 -1.41786 -0.177994   2.99836 70 118 78
-0.439294 -0.840738   3.26235 74 119 80
-1.55389 -1.11591  2.95301 63 115 77
-1.53906 -1.60264  2.95692 51 109 71
  -1.3954 -0.750145   3.00103 95 136 104
-1.34087 -1.55602   3.0102 71 132 88
-0.90497 -0.41122  3.13424 48 100 62
-1.50398 -1.49379  2.96682 56 114 74
  -1.60895 -0.0700232    2.93533 64 101 68
 -1.45691 -0.806047   2.97744 59 121 80
-0.937913 -0.873859   3.12344 54 116 75
-1.49767 -1.41382  2.96956 68 129 85
-0.413195 -0.660624    3.2694 90 110 85
-0.767131  -1.19876   3.16928 55 105 68
 -1.64833 -0.456653   2.92633 82 124 88
-0.358323 -0.145358   3.28612 84 110 85
 -1.09583 -0.472902   3.07971 59 115 76
 -1.34548 -0.350984   3.00973 101 121 93
-0.914232 -0.447297   3.13211 68 101 70
-0.724928  -1.17102   3.18033 64 114 79
-1.34757 -1.53697  3.01003 67 122 82
-1.34817 -1.53758  3.00958 67 122 82
-1.41715 -1.00624  2.98674 71 119 79
-0.630591 -0.310637   3.21092 143 128 107
-1.15426 -0.62994  3.06596 55 112 71
-0.368433 -0.359576   3.28461 77 103 74
 -1.03827 -0.300184   3.10047 116 109 81
 -1.40995 -0.870038   2.99433 72 129 86
-1.59863 -1.15336  2.94396 54 106 68
-0.747342 -0.284847   3.17563 139 124 101
-0.803335 -0.207106   3.16059 130 108 87
 -1.09123 -0.128696   3.08465 87 97 73
 -1.31047 -0.180658   3.01858 70 118 80
-1.13721 -1.11242  3.06472 69 117 77
-1.29723 -1.61417  3.02282 78 130 84
-1.55281 -0.84616  2.95414 72 118 81
-0.287591  -0.28559   3.30117 78 113 80
-0.698406 -0.532334   3.18922 67 102 69
-1.4977 -1.3134 2.96544 58 113 73
-1.10747 -1.02515  3.07612 83 125 89
-0.373537 -0.517273   3.28495 79 106 75
-1.42752 -1.41121  2.98359 75 130 88
 -1.14704 -0.507875   3.06566 70 117 81
-1.27649 -1.20866  3.03004 61 109 71
 -1.13337 -0.837254   3.06915 77 125 87
-1.17757 -1.14987  3.05487 74 110 74
 -1.37926 -0.141345   3.00789 79 113 78
 -1.46731 -0.893562   2.97527 64 130 84
   -1.456 -0.125433   2.98534 69 115 78
-1.09171 -1.13142  3.08355 63 119 80
-0.775548 -0.391292   3.16571 38 94 57
-1.55042  -0.5012  2.95793 75 107 70
-0.593449 -0.311879   3.22193 108 111 84
-1.22565 -1.26318  3.04827 74 108 73
 -1.19914 -0.466843   3.05666 53 103 66
 -1.55534 -0.610555   2.95606 60 102 64
-1.24353 -1.27102   3.0391 75 113 76
 -1.52882 -0.862619   2.96415 59 110 67
-0.599063 -0.277181   3.22758 147 130 110
 -1.17335 -0.713371   3.05761 54 111 70
 -1.17743 -0.757961   3.05891 64 119 79
 -1.52859 -0.829509   2.96351 77 118 84
 -1.35931 -0.933267   3.00335 64 119 80
-0.907359  -0.45915   3.14071 58 98 64
-0.404943 -0.415589   3.27072 69 113 77
 -1.29298 -0.785053   3.02443 51 101 64
-0.361239 -0.170641   3.28138 98 116 90
 -1.52635 -0.400736   2.95938 83 115 78
-1.60724 -1.56473  2.93663 76 126 88
-1.21342 -1.16755  3.04743 71 111 74
-1.11468 -1.61561  3.07461 72 106 73
-1.53882 -1.21371  2.96341 71 126 87
-1.55037 -1.57127  2.95047 57 112 70
-0.990915  -0.46026   3.11057 60 123 78
 -1.07956 -0.259966    3.0857 116 114 91
 -1.51202 -0.409145   2.96695 68 100 63
-0.123249 -0.582471   3.34999 80 120 83
 -1.33872 -0.139424   3.01058 43 102 58
-0.357631 -0.371386   3.28272 100 126 97
 -1.25031 -0.798067   3.03609 45 103 62
 -1.04287 -0.154463   3.09417 128 112 89
 -1.32537 -0.638093   3.01397 58 106 66
-1.62125 -1.37195  2.93691 43 99 62
-0.930466 -0.281798    3.1277 131 119 95
 -1.51588 -0.377659   2.96522 73 111 74
 -0.983276 -0.0387564    3.10818 101 107 81
-0.131297 -0.591534   3.34649 67 105 68
 -1.35033 -0.399087   3.01225 89 124 91
-1.26897 -1.52447  3.03026 65 122 77
-1.40368 -1.36477  2.99368 69 113 77
-0.441252 -0.232135   3.26593 140 124 98
 -1.46053 -0.333065   2.97903 72 108 70
-1.65598 -1.47306  2.92475 68 123 83
-1.09064 -1.32884  3.08014 83 121 82
-0.920864 -0.234489   3.12588 125 107 87
 -1.31785 -0.489232   3.01979 53 105 67
-0.771822 -0.498585   3.17089 61 111 76
 -1.44917 -0.213804   2.98617 65 100 68
-0.444571 -0.276312   3.25894 125 113 87
 -1.08748 -0.461539   3.08178 50 104 68
-1.43728 -1.57369  2.98656 71 132 90
-0.596353 -0.455553   3.21454 45 99 63
  -1.34736 -0.0444928    3.01556 63 97 64
-1.17531  -0.4071   3.0604 68 105 71
 -1.09723 -0.204758   3.08886 106 104 81
-0.812792  -0.53738   3.15518 65 106 72
  -1.44151 -0.0874096    2.98787 68 108 71
-1.14989 -1.44141  3.06518 66 121 81
-1.14658 -1.62415  3.05936 88 118 84
 -1.52821 -0.296317   2.96398 83 114 83
-0.802549 -0.482072   3.16611 58 108 73
 -0.113053 -0.0620261    3.35186 44 93 61
-0.333934 -0.462106   3.29407 98 112 89
-0.101029 -0.970781   3.35431 73 98 69
 -1.51687 -0.327201   2.96313 106 126 99
-0.870548  -0.22146   3.14719 126 110 85
-0.310821 -0.315886   3.29959 79 108 77
 -0.52872 -0.208208   3.23821 148 130 106
-1.43936 -1.30116  2.98518 65 111 74
 -0.837371 -0.0558177    3.15398 119 101 81
-1.35606 -1.25663   3.0104 76 118 82
-0.276488 -0.316653   3.30246 53 101 63
 -0.272139 -0.0863467    3.31302 96 104 83
-1.58534 -1.47199  2.94716 73 123 86
-0.257051 -0.198367   3.30956 63 96 65
-0.719023 -0.529132   3.18687 67 102 70
-0.262837 -0.160328   3.30766 63 96 65
-0.824654 -0.409065   3.15611 44 98 64
-0.149383 -0.314794   3.34193 68 112 77
-1.45082 -1.49984   2.9782 65 127 78
-1.32987 -1.48754  3.01109 73 130 89
 -1.28568 -0.499465   3.02678 47 99 61
-0.117998  -1.11008   3.35012 48 87 58
-0.929538 -0.514829   3.12568 53 98 65
-1.12689   -1.482  3.07355 61 122 78
 -1.3756 -1.47389  3.00204 69 124 82
  -1.16257 -0.0864381    3.05956 57 101 66
 -1.13072 -0.553036   3.07166 51 117 71
 -1.32952 -0.282492   3.01738 109 129 104
-1.30573 -1.34347  3.02902 83 125 89
 -1.1697 -1.38275  3.05694 69 128 84
-0.702884 -0.488215   3.19111 67 101 74
-0.292188 -0.222509    3.3039 92 115 86
-0.963234 -0.271878   3.11804 128 111 91
-0.451218 -0.191428   3.26283 142 126 100
 -0.609943 -0.0927235    3.21472 126 108 88
-0.321202 -0.267956    3.2921 102 113 81
  -1.49408 -0.0666721    2.96897 105 113 89
 -1.37032 -0.190018   3.00397 83 124 90
-0.714144 -0.346723   3.18661 66 114 74
 -0.160279 -0.0462738    3.33538 41 85 52
 -1.279 -1.5394 3.02619 66 117 76
-1.14246 -1.50892  3.06732 69 116 74
-0.387263 -0.520597   3.27308 90 119 88
-0.113015  -1.05501    3.3511 62 87 65
-1.00205 -0.16707  3.10932 136 119 99
-0.211549  -0.19226   3.31982 42 98 63
  -1.0038 -0.417063   3.10733 41 103 64
-1.56139 -1.56003  2.94188 61 111 73
-1.50476 -1.39243  2.96832 65 124 80
-0.515655 -0.150504   3.23959 134 116 94
  -1.2115 -0.311539   3.04843 69 105 67
 -0.362816 -0.0233437    3.28251 117 100 80
-0.853653 -0.405168   3.14509 49 103 69
-0.972793 -0.437179   3.11194 70 121 78
-1.33822 -1.55037  3.01241 76 133 90
-0.835861 -0.342453   3.15279 55 109 73
 -1.43275 -0.313551   2.98716 95 125 91
-1.62706  -0.2298  2.93723 72 118 81
 -1.3224 -1.58858  3.01412 71 130 86
 -0.779655 -0.0894912    3.16898 132 114 90
-1.63404 -0.57318  2.93514 78 118 81
-1.43392  -1.4338   2.9794 59 125 79
-1.28644 -1.57042  3.02489 78 129 86
 -1.05928 -0.176017   3.09747 130 112 90
 -1.25647 -0.487633   3.03544 54 106 68
  -1.0966 -0.308821   3.08062 59 103 68
 -1.39281 -0.291072    3.0004 112 124 102
-1.33915  -1.5945    3.013 68 127 83
-1.10083 -1.54405   3.0816 66 124 83
-1.28749 -1.37574  3.02797 83 128 87
-0.926438 -0.238643   3.12726 128 112 87
-0.799248 -0.128085   3.16749 134 116 96
-0.902268  -0.32209   3.13462 56 108 70
-0.329928 -0.152681   3.28757 73 108 75
  -0.43621 -0.0885207    3.26724 134 116 94
 -1.30948 -0.545531   3.02223 61 108 72
 -1.37466 -0.307938   3.00017 90 117 86
-0.793528 -0.471073    3.1687 54 101 67
  -1.38802 -0.0764261    2.99687 49 95 56
  -1.45624 -0.0502123    2.98436 73 110 76
-0.141417 -0.815212   3.33761 74 98 64
-1.09725 -1.36599  3.08221 83 119 83
-0.840747 -0.155833   3.15666 129 111 87
-0.868056 -0.323615   3.14124 45 101 64
-1.51891 -0.33978  2.96685 94 120 91
-1.19388 -1.56733  3.05419 76 124 84
 -1.14019 -0.442399   3.07103 51 107 70
  -0.45265 -0.0685185    3.26151 135 119 96
 -1.05997 -0.460934   3.08681 55 120 77
-0.829853 -0.262397   3.15569 136 120 95
-0.421025 -0.114589   3.26174 122 110 88
-0.606612 -0.318381   3.21585 118 121 94
  -0.29796 -0.0454068     3.3011 114 106 85
-0.702092  -0.43172    3.1956 63 107 71
-0.853886 -0.542821   3.14883 61 107 68
-1.38587 -1.47032  3.00154 74 125 84
 -1.16024 -0.319878   3.07177 45 97 61
-0.366597 -0.254805   3.28243 118 118 94
-0.653114 -0.284597   3.19931 144 127 107
-1.16172 -1.50443  3.05515 72 112 75
-0.605279 -0.340794   3.22145 77 112 79
-0.684443 -0.222158   3.19227 142 125 105
-0.606794 -0.200373   3.21735 141 125 102
 -1.63475 -0.360379   2.92999 145 133 111
 -0.390959 -0.0850768    3.27941 106 109 82
 -0.410327 -0.0957835    3.27755 122 116 94
-0.687739 -0.290503   3.19674 139 122 102
-0.851011 -0.144171   3.15467 128 110 86
-0.614953 -0.113883   3.21935 135 117 97
-0.503607 -0.204665   3.25226 144 122 99
-0.136471  -1.32733   3.34478 56 89 58
-0.127056  -1.29356   3.34734 82 113 82
-0.683703  -1.61348    3.1921 77 108 76
-0.135409  -1.45542   3.34084 53 87 60
-0.664213   -1.5881   3.19637 81 112 78
-0.902063  -1.18298   3.12752 69 115 79
-0.925966  -1.49794   3.12707 62 104 68
-0.32719 -1.60216  3.28531 60 87 54
-0.27951 -1.39125  3.30593 61 91 65
-0.190909   -1.2487   3.32788 48 87 56
 -1.02271 -0.576238   3.10165 96 116 88
-0.895604  -1.24859   3.13546 49 101 65
-0.517726  -1.58595   3.23991 56 97 63
-0.836546  -1.09196   3.14766 63 118 76
-0.260718  -1.26339   3.31267 88 114 85
-0.788651  -1.34173   3.16492 80 124 88
-0.516221 -0.744116   3.24398 47 94 60
-1.02494 -1.58124  3.09897 85 123 86
-0.329304  -1.33302   3.28846 67 100 71
-0.679431  -1.57783   3.19027 82 117 84
-0.386477  -1.15717   3.27331 59 104 75
-0.352953 -0.524966   3.28776 97 124 91
-0.479742 -0.639818   3.25188 65 112 76
-0.542541  -1.53202   3.22958 57 94 61
-0.362846 -0.649839   3.28422 107 121 98
-0.520089  -1.50619   3.23568 51 88 57
-0.689923  -1.38863   3.18595 72 114 78
-0.183884 -0.771922   3.33434 63 105 65
-0.588491   -1.0899   3.21843 73 115 79
-0.654652  -1.09876   3.19744 56 108 69
-0.967015  -1.49061   3.11568 74 118 82
-0.162498 -0.920881   3.33794 54 88 61
 -0.4146 -1.03995  3.26606 67 112 79
-0.677701  -1.53554   3.19573 82 120 83
-0.284677  -1.29054   3.30333 80 98 74
-0.955721  -1.60989   3.11938 88 126 89
-0.597126   -1.3724    3.2147 77 119 83
-1.01195 -0.91711  3.10606 60 115 73
-0.365461  -1.15383   3.28016 53 94 64
-0.328082  -1.06742    3.2892 61 108 66
-0.537562  -1.34891   3.23543 55 99 64
 -1.01615 -0.895092   3.09819 71 122 81
-0.551858  -1.13784   3.22973 53 108 68
-0.408412  -0.90165   3.26826 61 102 70
-0.530086 -0.867454   3.23806 69 104 71
-0.61701 -1.48438  3.20638 75 116 76
-0.307047  -1.61779   3.29529 65 90 61
-0.574182  -1.01754   3.22385 64 120 75
-1.03693 -1.55497  3.09369 70 111 71
-0.331296  -0.73078   3.29039 49 101 63
-0.134233  -1.64275   3.34259 46 79 50
-0.790881  -1.40659   3.15894 70 117 81
-0.199133  -1.23388   3.32927 60 97 66
-0.915165 -0.959728   3.13267 57 114 73
-0.274826  -0.58942   3.30725 81 115 78
-0.200921  -0.53489   3.32586 74 115 73
-0.556838  -1.36855   3.22682 80 122 86
-1.02506 -1.38809  3.09417 66 117 76
-0.746056  -1.13611   3.17477 53 103 66
-0.836066   -1.1075   3.15477 71 128 85
-0.477238  -0.77144    3.2552 71 114 71
-0.227919  -1.51542    3.3212 61 90 62
-0.284391 -0.768839   3.30734 65 107 71
-0.481705  -1.34425   3.24984 47 102 63
-0.154273  -1.32848   3.33524 71 105 72
-0.813956  -1.63085   3.15578 66 106 71
 -1.10323 -0.589677   3.08183 70 118 78
-0.757045 -0.988746   3.17548 73 121 81
-0.784535 -0.988411   3.16332 72 128 83
 -1.36592 -0.693739   3.00599 67 115 77
-0.357378  -1.62769   3.28058 68 103 73
 -1.45562 -0.943892   2.98248 78 125 83
-1.03091 -1.42638  3.09986 77 125 87
-0.380406  -1.22687   3.27938 59 98 67
-0.527534  -1.17802   3.23275 74 122 82
-1.16168 -1.20589  3.06333 83 123 86
-0.577938 -0.727333   3.22358 80 111 79
-0.41524 -1.23108  3.26528 65 100 70
-0.498742  -1.21342   3.24349 65 110 79
-0.547921  -1.51296   3.22727 58 98 64
-0.172352 -0.564974   3.33388 78 112 75
-0.813813  -1.16303   3.16186 56 106 69
-0.535826 -0.791013     3.233 64 116 77
-0.535725  -1.44435   3.23248 71 106 76
-0.402775  -1.46379   3.27229 42 78 50
-0.40286 -1.46266  3.27304 42 78 50
-1.08277 -0.57481  3.08485 61 109 69
-0.414611  -1.60648   3.26277 65 99 66
-0.167599   -1.1263    3.3353 75 110 78
-0.780588  -1.60534   3.16628 66 103 70
-0.538801 -0.656864   3.23664 79 112 81
-1.38561  -1.0227  3.00065 73 115 79
-0.893315  -1.42853   3.13778 106 122 96
 -1.02776 -0.778678   3.09754 54 109 69
-0.417487   -1.3895   3.26563 43 82 51
-0.346336  -1.25248    3.2842 53 96 66
  -1.1244 -0.921859   3.07285 76 124 84
-0.549039 -0.950088   3.23438 62 103 69
-0.651626 -0.977581   3.20505 63 113 78
-0.915877  -1.12864   3.12868 56 109 67
-0.255216 -0.978027   3.31199 87 118 84
-0.455076 -0.929456   3.25238 70 110 75
 -1.45045 -0.711239   2.98528 103 128 99
 -1.64657 -0.936593   2.93158 63 113 78
-0.473362  -1.35478   3.24853 68 120 82
 -1.45388 -0.672697   2.98222 109 127 105
-0.443298  -1.48575   3.26096 46 90 57
-1.57658 -1.06229  2.94503 66 125 81
-0.577316 -0.631008   3.22437 65 103 66
-1.02694 -1.52922  3.10247 77 125 85
 -1.63599 -0.895655   2.93604 46 101 61
-1.28039 -1.06561  3.02759 83 123 88
  -1.1993 -0.766393   3.04726 70 125 85
 -1.0207 -1.40982  3.09856 67 117 79
-0.344973  -1.61912   3.29246 50 85 55
-0.341532  -1.15347   3.28433 51 97 61
-0.293233 -0.815192   3.30304 103 128 99
-0.640323 -0.976218   3.20694 52 104 66
-0.569896  -1.58899   3.22407 76 128 82
-0.814881  -1.12161   3.15309 72 129 84
 -1.36204 -0.945345    3.0028 54 108 72
-0.632056  -1.42838   3.20749 73 120 78
-0.505916 -0.636263   3.24152 57 98 64
-1.59566 -1.21533  2.94021 65 112 78
-0.843358  -1.04516   3.14781 63 116 72
-0.465273  -0.57815   3.25727 68 113 74
-0.301679  -0.60267    3.3052 108 129 98
 -1.10849 -0.567306   3.07502 59 122 77
-0.45834 -1.60778  3.24091 86 112 85
-1.00538 -1.04549  3.10497 55 105 67
-1.07976 -1.49579  3.08224 73 123 85
-0.189193  -1.54637   3.32828 58 87 59
-0.655462  -1.18353   3.20302 57 109 71
-0.242421  -1.55273   3.31251 53 82 54
-0.922146  -1.48673   3.13149 71 115 82
 -1.18584 -0.764745   3.05563 60 115 73
-0.541362  -1.18468   3.23478 59 107 67
-0.230735 -0.775183   3.31879 62 104 66
-0.619969  -1.38111   3.20931 78 123 84
-0.408501 -0.994875   3.27517 77 106 78
-0.64156 -1.10648  3.20248 73 121 83
 -1.33722 -0.642143   3.01049 58 113 74
-0.427432  -1.53963   3.26107 50 87 56
-0.748145 -0.598228   3.17417 68 108 71
-0.600036 -0.639916   3.21171 68 105 71
-0.752147  -1.01825   3.17251 61 114 70
-1.46888 -1.07927  2.97933 73 125 86
-1.07731 -1.05883  3.08717 56 118 67
-0.319109 -0.766027   3.28838 56 103 67
-0.796826  -1.15075   3.16535 64 111 75
 -1.11745 -0.743327   3.07351 49 101 65
-1.58197 -1.03907   2.9467 53 112 68
-0.685078 -0.654862    3.2003 64 108 73
-0.668862  -1.59729   3.19645 67 101 68
-0.159186  -0.69898   3.34251 88 125 84
-1.18854 -1.13068  3.05745 87 118 84
-0.514315 -0.776666   3.24389 47 103 64
-0.30011 -1.60589  3.29632 77 102 70
-0.449096   -1.0418   3.25636 78 113 83
-0.263195  -1.03836   3.31108 74 110 74
-0.720235 -0.546567   3.18669 65 106 72
 -1.30637 -0.608745   3.02061 65 107 71
-0.208139  -1.40526    3.3234 49 93 58
-0.634663 -0.665821   3.20517 58 102 69
 -1.1865 -0.80476  3.05853 59 116 75
-0.481932  -1.03123   3.25175 81 110 80
-0.350307 -0.659495   3.28446 94 108 82
-1.52617 -1.13935  2.95749 58 113 74
-0.862077  -1.06143   3.14373 62 121 77
-0.321326 -0.656281   3.29366 90 111 80
-0.243215  -1.51915   3.31925 51 81 53
-0.820304 -0.595738   3.15259 63 115 67
-0.731916  -1.09552   3.18669 74 122 84
-1.12731 -1.13841  3.07199 68 123 81
-0.740657  -1.00935   3.18475 75 120 79
-0.166506  -1.27516   3.33793 64 100 64
-0.562824  -1.47752   3.22622 77 106 75
-1.18023 -1.17936  3.05524 80 118 81
-0.300189  -1.08969   3.29685 57 98 64
 -1.40672 -0.892185   3.00039 70 127 86
-0.528888  -1.21468   3.23692 59 114 75
-0.573214   -1.0012   3.21901 68 125 80
 -0.28696 -0.832801   3.30176 93 124 90
-0.68049 -1.01136  3.19073 69 120 79
-0.157548  -1.48568   3.33684 51 85 58
-0.934154    -1.088   3.12267 63 121 81
 -1.15851 -0.727728   3.06732 50 102 66
-1.11483 -1.04624  3.07411 73 123 85
-0.891545 -0.919266   3.13569 59 116 75
 -1.4637 -1.17952  2.97766 76 120 84
 -0.50688 -0.881227   3.23416 73 110 69
-0.909927  -1.60883   3.12386 79 109 75
-1.00386 -0.58789  3.10436 114 119 97
-0.76958 -1.01944  3.16731 72 128 79
-0.586778  -1.54603   3.22031 82 116 83
-0.92485 -1.11455  3.12427 64 121 80
-0.859103 -0.680985   3.14822 73 109 73
-0.175014 -0.715994   3.34157 69 109 72
-0.600561 -0.562136   3.21313 53 103 66
 -0.32968 -0.683791    3.2933 69 104 71
-0.97694 -1.55587  3.10495 77 129 90
-0.186343  -1.47068   3.33338 52 87 57
-0.173838  -1.53598   3.33343 52 82 54
-0.389492  -1.46557   3.27442 49 85 57
-0.221716  -1.20988   3.31411 49 89 55
-0.717257  -1.04621    3.1944 69 120 77
-0.870841  -1.04468   3.14622 57 120 73
 -1.01889 -0.623199    3.1063 92 112 84
-0.194634 -0.762364   3.32367 84 122 83
-1.61158 -1.39019  2.94459 52 109 74
-0.939174   -0.5986    3.1247 107 125 101
-0.880564 -0.953772   3.13395 64 126 77
-0.778124  -1.06981   3.16857 82 128 89
-1.25486 -1.60121  3.03051 75 129 80
-0.408115  -1.57708   3.26693 72 102 74
-0.478596 -0.283658    3.2564 127 115 93
-0.752966 -0.848997    3.1447 40 81 51
-1.06294 -1.62754  3.08599 76 116 81
-0.846711 -0.395025   3.15315 46 100 66
-0.639587 -0.426093   3.21326 38 92 56
 -0.595397 -0.0229229    3.21235 109 91 67
-1.40685 -1.63934  2.99536 61 113 75
-1.13277 -1.64333  3.06765 94 129 89
-1.06288  -1.6482   3.0938 70 117 81
 -1.20284 -0.108257   3.05275 113 115 93
-0.544658  -1.02451   3.23343 70 123 79
-0.191095  -1.65639   3.32935 55 79 55
-0.254615  -1.37564   3.31297 35 74 47
-0.175457  -1.09689   3.33416 85 105 80
   -1.04317 -0.00379551       3.094 39 85 49
 -1.36496 -0.774136   3.00887 102 133 102
-0.271303  -1.26231   3.30584 88 113 84
-0.742842         0   3.17915 103 82 61
 -1.22189 -0.364553   3.04385 110 137 102
-1.25281  -1.4134  3.04104 79 131 83
-0.230032  -1.10607   3.31717 45 81 55
 -1.10777 -0.137072   3.07733 43 76 47
 -1.03028 -0.405265   3.09555 39 101 62
 -1.28788 -0.415544   3.02994 42 97 58
-0.580653  -1.56471   3.21709 83 127 91
 -1.20633 -0.273766   3.05358 51 87 51
-1.27981 -0.19235  3.04019 57 101 66
 -1.21066 -0.990506     3.048 110 128 104
-0.900612  -0.20553   3.13402 109 78 58
-0.852807 -0.450513    3.1506 81 126 93
-0.400843 -0.253628   3.27257 147 129 109
-0.171205 -0.956479   3.33421 91 120 92
 -1.20192 -0.780863   3.04958 59 118 72
-0.296406  -1.07725   3.29374 53 94 60
 -1.09306 -0.387827   3.08231 95 137 101
-0.415542 -0.350283   3.26848 100 123 97
-0.223776 -0.653805   3.31891 62 102 67
-0.908602  -1.58527   3.12936 65 102 68
-1.12432 -1.59505  3.07092 114 137 108
-0.436305 -0.786136   3.26154 96 133 99
-1.07054 -1.47104  3.08709 65 102 69
 -1.15173 -0.578212   3.06615 96 131 98
  -1.21604 -0.0698398    3.04844 42 79 48
-0.879284  -1.39637   3.13903 95 135 100
 -1.61372 -0.666165    2.9537 105 137 96
  -1.06588 -0.0726346    3.08788 111 111 87
 -1.54212 -0.281293   2.95946 58 91 60
-0.535503 -0.976331   3.23402 104 142 105
-0.720078 -0.406426    3.1853 78 125 89
-0.937893 -0.796207   3.12143 44 98 62
-0.137309  -1.04027   3.34396 97 111 86
-0.388031  -1.28229   3.27715 43 84 54
-1.53705 -1.58802  2.95766 101 153 115
-0.149252 -0.595021   3.34057 57 104 62
 -1.42958 -0.504107   2.98913 61 101 67
-0.793071  -1.37672   3.16318 45 89 54
 -1.45523 -0.425521   2.98225 56 93 60
-0.206254 -0.501911   3.32632 66 100 65
 -1.48893 -0.499452   2.97286 131 144 124
-0.347867  -1.18711   3.28523 86 130 95
 -1.51577 -0.606609   2.96579 103 128 99
-1.61419 -1.42518  2.93525 71 130 86
 -1.23768 -0.405112     3.041 47 100 58
  -1.5196 -0.643216   2.96471 61 105 69
-0.978771  -1.55916   3.11229 78 129 88
-0.175976 -0.732524   3.33248 58 106 66
-0.877789  -1.42482   3.13981 55 96 64
-0.187281 -0.269102   3.33349 63 100 69
 -1.22722 -0.722223   3.04556 48 103 64
-0.771845 -0.768314   3.29424 68 105 71
-0.19596 -0.10981  3.33019 80 127 83
-0.281501  -1.42005     3.307 49 82 55
-0.196416 -0.385261    3.3298 92 132 97
  -1.3349 -0.444136   3.01547 84 130 94
-0.912876   -1.2742   3.12904 107 144 111
-0.393236 -0.365567   3.27496 57 94 61
-0.257298  -0.44317   3.31306 96 125 97
-0.509322  -1.19819   3.24255 60 107 75
-0.791244 -0.346318   3.16351 70 125 86
-0.604126 -0.704903   3.21751 97 135 98
-0.845722  -1.54447   3.14714 58 100 64
   -1.314 -0.831119   3.02003 114 140 111
 -1.4339 -1.21327  2.98551 69 106 72
-0.480039  -1.36548    3.2469 59 114 75
-0.547734 -0.851039   3.23281 105 137 100
-0.107918  -1.35793   3.35338 76 107 73
-0.419221  -1.08174   3.26905 72 116 83
-0.493113  -0.06176   3.24017 133 115 95
-1.67777 -1.50599  2.92463 75 118 88
 -1.54895 -0.119802   2.95381 59 97 60
-0.262874  -1.13924   3.31379 45 82 51
-0.290801  -1.05171   3.30102 58 93 63
 -1.48357 -0.163702    2.9767 69 122 76
-0.658225 -0.336922   3.20261 126 127 96
-0.350081  -1.05333   3.28605 94 136 100
-0.341759   -1.0311   3.28685 68 108 73
 -1.5208 -1.18951  2.96177 97 147 110
-1.52127 -1.18944   2.9624 97 147 110
-1.50132 -1.00289  2.96716 52 113 69
 -1.12598 -0.342939   3.07316 82 130 92
 -0.77738 -0.647437   3.16879 78 124 87
-1.51682 -1.45742  2.96747 79 127 87
-0.596374 -0.999771   3.21799 71 127 82
-1.34307 -1.22099  3.01194 110 141 109
-0.504711 -0.479146   3.24481 49 91 55
-0.545411 -0.631813   3.22798 55 99 64
-0.191074 -0.965873   3.32673 55 90 60
   -1.3473 -0.0150506    3.01656 98 112 87
-0.870132  -1.54886   3.14056 66 103 69
 -1.33239 -0.758558   3.01593 102 142 107
 -1.21737 -0.237026   3.04568 57 87 53
 -1.62808 -0.719095   2.93498 101 143 105
-0.840348 -0.407678   3.15173 63 114 81
-0.736137 -0.143563   3.17789 121 106 85
-0.750751 -0.112725   3.17645 144 126 102
-0.422484 -0.204804   3.26577 129 112 92
-0.423507 -0.204053   3.26928 129 112 92
-0.524993 -0.449015   3.23742 82 133 90
-0.671416  -1.11143   3.19881 59 105 68
 -1.11927 -0.276666   3.07307 88 118 84
 -1.53492 -0.852954   2.96154 100 137 103
 -1.53349 -0.852979   2.96015 94 135 101
 -1.51862 -0.493408   2.96499 67 102 70
-0.491848  -1.62159   3.24896 91 125 90
 -1.48951 -0.289417   2.97244 103 133 105
-0.178494 -0.630472   3.33357 99 136 95
  -0.97131 -0.0744785    3.11606 113 97 72
-0.627789  -1.01412   3.20903 59 104 65
-1.60839 -0.98324  2.94213 53 102 70
-1.34702 -1.14634  3.00779 105 139 102
-0.730478  -1.42155   3.17994 108 139 107
-0.946525 -0.846082   3.12268 82 130 92
-1.27692  -1.1409  3.02879 103 127 95
-0.854844  -1.17972   3.14701 51 99 61
-1.58638 -1.61753  2.94181 58 110 72
-0.351155  -1.21378   3.28508 77 123 87
 -1.25973 -0.225816   3.03838 101 117 90
-0.428119 -0.585619   3.26393 64 105 63
-0.626533  -1.09208   3.20803 102 146 110
-0.593928  -1.17088   3.21749 81 133 95
-0.468227  -1.06636   3.25359 87 128 94
 -1.26041 -0.880755   3.03405 59 107 67
-0.415555 -0.593751   3.27006 106 137 103
 -1.55849 -0.231052   2.95167 89 104 71
-0.253162 -0.717548     3.313 90 130 95
-1.26598 -1.00617  3.03162 69 107 70
-0.139876  -1.39285   3.34135 73 107 80
-0.405275  -1.33057   3.27205 39 83 50
 -1.25066 -0.683091   3.03911 51 98 62
-0.119689 -0.147715   3.35024 62 117 78
-1.51774 -1.49972  2.96107 53 104 73
-0.879342 -0.922799   3.14033 69 127 86
-0.475948  -1.32313   3.25358 61 113 77
  -0.98032 -0.0252688    3.11402 69 81 59
  -1.55404 -0.0346321    2.95047 104 108 81
-1.19692 -1.07465  3.05725 63 107 72
-1.10877  -1.6453  3.07503 102 131 100
-0.842511  -1.45033   3.14807 65 100 68
-0.926606  -1.62399   3.12613 93 129 93
-0.839882 -0.456727   3.15186 85 130 97
-0.913137 -0.584621    3.1315 68 105 71
 -1.27771 -0.305638   3.03136 94 121 90
 -1.27611 -0.376678   3.03238 48 94 58
 -1.39514 -0.456082   2.99828 92 126 89
-0.103038 -0.217337   3.35714 56 100 65
-0.723172  -1.39613   3.18086 91 128 94
-0.534467  -1.11706   3.23147 69 126 83
-0.767123  -1.47737   3.16924 57 101 65
-0.505147 -0.959345   3.24236 53 90 57
-0.520179  -1.37332   3.23888 54 100 64
-0.121041 -0.177305   3.34955 91 131 97
-1.22706 -1.24404  3.04465 76 101 71
-0.676062  -1.29386   3.19613 80 127 91
-0.675651  -1.29402   3.19444 80 127 91
-1.64036 -1.26662   2.9288 60 110 75
 -1.33194 -0.493918   3.01633 90 137 101
 -1.35878 -0.490291   3.00963 90 127 94
-1.05028 -1.57168   3.0875 83 123 86
 -0.21882 -0.133221   3.32176 42 89 53
-0.733772  -1.47524   3.17855 60 100 63
-1.19913 -1.11169  3.05182 124 143 113
 -0.866398 -0.0669994    3.14545 128 112 87
-0.182125  -1.21207   3.32891 65 102 69
-0.210423 -0.362504   3.32434 57 98 64
   -1.0314 -0.0385952     3.0953 47 103 64
 -1.44024 -0.404277   2.99027 66 106 71
-1.11347 -1.34028  3.07205 59 107 67
-1.30569 -1.12938  3.02105 103 137 104
-0.812436    -1.278   3.15983 91 131 97
-1.15476 -1.45065  3.06368 50 111 67
 -1.37028 -0.970844   3.00045 77 132 93
-0.926369  -1.40431   3.13509 65 102 68
-1.12728 -1.58332  3.06892 107 136 105
 -1.38397 -0.740346   3.00196 103 140 107
-0.126053 -0.603489    3.3489 87 128 88
 -1.20132 -0.316011   3.05289 90 131 91
 -1.31857 -0.800218   3.01841 97 130 101
-0.951445 -0.861056   3.12215 44 100 61
-0.991096  -1.57319   3.10686 85 129 93
-0.284269 -0.480565   3.30843 75 99 73
-0.890098  -1.02349   3.13793 61 125 75
  -0.4405 -0.592687   3.26076 100 132 95
 -1.22486 -0.114962   3.04535 67 82 53
-1.02766 -1.22703  3.09934 91 131 96
-1.25556 -0.85859   3.0357 87 139 101
-0.0796091  -0.786884    3.36135 85 115 79
  -1.2551 -0.428217   3.03803 75 130 91
-1.48002 -1.59749  2.97719 78 137 91
