ply
format ascii 1.0 
element vertex 1216
property float x
property float y
property float z
property uchar red
property uchar green
property uchar blue
end_header
-0.812893 -0.662665   3.60223 79 117 80
-0.754496  -0.10091   3.61365 126 108 84
 -1.48165 -0.604783   3.42021 51 108 65
-1.36171 -1.49196  3.45681 69 105 67
 -1.36635 -0.575678   3.45167 48 100 62
-1.64391  -1.6427  3.37939 54 116 69
-0.910544  -1.67888   3.58537 77 118 84
-0.605242 -0.786338   3.66084 59 96 63
-1.21795 -1.80547  3.50158 66 103 69
-0.458524 -0.997771   3.69861 73 117 82
-0.199091 -0.778078   3.76492 84 109 77
-1.76243 -1.17874   3.3502 62 120 79
-0.853673  -1.55898   3.59868 56 102 65
 -1.00225 -0.301071   3.54358 126 108 86
-0.543187   -1.6368   3.67618 64 110 74
 -1.68296 -0.335367   3.36106 77 108 77
-1.29401 -1.44565  3.47561 65 107 71
-1.81256 -1.31751   3.3328 52 107 68
 -1.43938 -0.724524   3.43205 106 133 98
-1.40222 -1.71663   3.4449 80 128 88
 -0.413866 -0.0847212    3.70107 113 111 90
-0.606439 -0.933589   3.65708 67 107 72
-0.487029  -1.15947   3.69176 56 100 67
 -1.63687 -0.295534   3.37486 73 104 73
 -1.37346 -0.190714   3.44553 37 82 51
-0.80662 -1.29127  3.60569 51 103 65
 -1.63406 -0.807211   3.37593 97 134 100
-0.287675 -0.890842    3.7441 77 121 85
-0.872305 -0.546624   3.58523 64 114 79
-0.461411 -0.646823   3.69628 92 123 89
-0.610792  -1.42736   3.65981 61 107 71
-0.795915  -1.67994   3.61124 58 103 62
 -1.04624 -0.273299   3.53901 139 122 102
 -1.53646 -0.364884   3.40475 65 105 70
-0.819547  -1.44173   3.60532 72 116 81
-1.06766 -1.35845  3.53784 52 104 66
-1.76574  -0.8218  3.34268 77 112 70
-0.289262 -0.349829   3.74689 67 117 79
-0.509288  -1.07697   3.68549 75 110 78
-0.71028 -1.08357  3.63102 67 116 84
-1.24396 -1.42253  3.48766 71 104 73
-0.659549  -1.38754    3.6442 80 120 86
-0.168548 -0.266104   3.76891 74 103 73
-1.34615 -1.18983  3.46142 92 125 94
 -1.13092 -0.508854   3.51524 37 104 60
 -1.03427 -0.362665   3.53858 100 117 85
 -1.35408 -0.839764   3.45777 49 106 65
-0.998618 -0.983494   3.55251 50 105 66
 -0.386831 -0.0182306    3.70488 131 116 95
-0.485931  -1.20624   3.69477 61 105 72
-1.32001 -0.48844  3.46292 78 126 86
 -0.28211 -0.611371   3.74346 87 117 81
-1.57208 -1.78257  3.39996 64 129 86
 -1.72153 -0.708324   3.35756 65 101 65
-0.325707  -1.04332   3.73407 82 116 83
-1.35259 -1.36129  3.45992 77 111 76
-0.417436 -0.985085   3.71085 80 124 88
 -0.91662 -0.230453   3.56837 139 123 98
-0.296968 -0.644685   3.74221 78 112 75
-0.254705  -1.01806   3.75494 89 125 87
-1.52132 -1.49694  3.41226 77 125 85
-0.155183  -1.25405   3.78028 62 99 66
-0.979056 -0.126597   3.55536 122 105 85
 -1.37897 -0.484777   3.45156 59 111 73
 -1.2211 -1.25213  3.49308 49 106 63
-1.49472  -0.6143  3.41915 65 127 80
-0.870527  -1.50661    3.5926 62 108 72
-0.390669 -0.940019   3.71705 79 114 81
-1.05252 -1.02972  3.53817 68 125 84
-0.311046 -0.649796   3.73669 92 128 90
-0.54233 -1.45094  3.67713 49 101 63
-1.51592  -1.4613  3.41319 62 113 70
-0.453775   -1.2662   3.69686 52 96 61
-0.304181  -1.20184   3.74265 56 90 63
 -1.75641 -0.732719   3.35024 79 111 74
-0.737851  -1.08707   3.62215 46 98 60
 -1.71246 -0.281302   3.35457 70 97 62
-0.660452 -0.740007   3.64382 63 100 67
 -1.42738 -0.594677   3.43585 56 106 71
-0.859713 -0.782019   3.59155 49 102 60
-0.369054  -1.42894   3.72435 71 104 75
-0.438007  -1.69485   3.70447 52 88 62
 -1.04092 -0.427367   3.53686 46 101 62
-1.21661 -1.55707  3.49396 56 122 76
 -1.55931 -0.816758    3.4015 77 107 79
-0.173887 -0.538944   3.77284 63 98 68
 -1.25162 -0.857497   3.48272 65 117 81
 -1.14718 -0.296146   3.50432 125 109 84
-1.30073 -1.64507  3.47122 81 126 87
-1.74187 -1.21016  3.35424 52 107 67
 -1.60822 -0.720948   3.38593 99 116 97
 -0.93033 -0.501482   3.57067 58 101 71
-0.917772  -1.66056   3.57572 62 108 72
-0.385059  -1.49821   3.71934 80 109 79
-1.57317  -1.0027  3.39706 73 130 85
 -1.2014 -1.12803  3.49838 88 126 89
-1.33165 -1.50322  3.46801 74 110 72
-1.07305 -1.13818    3.534 60 105 72
 -1.07535 -0.538382   3.52962 73 119 80
-0.537544  -1.17051   3.68011 89 118 90
-0.839474  -1.16992   3.59889 65 122 77
   -1.2352 -0.0543233    3.47551 25 75 38
 -1.73351 -0.334742   3.35136 87 122 90
 -1.63211 -0.902624   3.38185 46 107 66
 -0.945614 -0.0626721    3.55832 127 109 89
-1.42278 -1.45186   3.4401 70 117 75
 -1.18654 -0.651949   3.50227 88 122 89
-0.437655 -0.497321   3.70089 49 93 58
-0.578886 -0.837423   3.67174 47 94 60
 -1.40291 -0.513088    3.4446 69 115 79
-1.42119 -1.17928  3.43781 71 111 76
-1.52215 -1.42469  3.41058 64 112 70
-0.592918 -0.829064   3.66374 63 108 77
-1.46389 -1.71303  3.43144 83 135 87
-0.992177  -1.21957   3.55208 55 111 66
-0.537478 -0.722175   3.67868 65 112 76
 -1.36708 -0.632156   3.45694 55 95 60
-0.50184 -1.64115  3.68725 46 90 55
-0.496791  -1.72102   3.69229 70 105 75
-0.528687  -1.25127   3.68432 73 110 77
-0.434314 -0.947141    3.7084 67 115 77
-1.05381 -1.22204  3.54034 51 107 68
-0.284131 -0.371649   3.74368 56 102 65
-1.66876 -1.04355  3.37179 64 110 73
-0.869889  -1.70932   3.58853 92 125 94
 -1.04725 -0.749702   3.53539 122 128 102
 -1.25492 -0.722595   3.48258 48 103 64
-0.893607  -1.59795   3.58372 87 131 98
-1.18223 -1.83393  3.50439 83 120 87
-0.528766  -1.47537   3.68081 69 119 84
 -1.24325 -0.843183   3.48964 49 103 67
-1.60383 -1.13765  3.39325 83 129 90
 -1.3367 -1.58761  3.46411 89 136 90
 -1.20709 -0.565623   3.49702 51 106 64
-1.82006 -1.77136  3.32991 85 135 97
 -1.52073 -0.989254   3.41027 46 101 61
-0.530466 -0.261032   3.67501 147 131 108
-1.48408 -1.32501  3.42852 65 105 68
-0.779914 -0.148549   3.61504 147 125 101
-0.610934  -1.10439   3.66287 60 105 64
 -1.39267 -0.592636   3.44569 59 100 66
 -1.50492 -0.934142    3.4167 53 110 67
-1.07646 -1.62871  3.53015 96 127 95
-0.774739 -0.175265   3.60948 133 115 93
 -1.30469 -0.928869   3.46844 49 104 64
 -1.81476 -0.760981   3.33001 74 111 77
-1.00703 -1.20746  3.55141 66 125 81
  -1.6527 -0.947834   3.37622 51 114 69
 -1.29326 -0.718377   3.46857 50 107 66
-0.904723  -1.45188   3.58075 76 117 83
-0.446017  -1.24401   3.70301 69 108 79
-1.14908 -1.77048  3.51497 71 105 72
-0.216295  -0.72284   3.76494 71 108 67
 -1.4728 -1.50299    3.427 63 105 69
-1.11131 -1.20271  3.52596 55 105 68
-0.180498 -0.194107   3.76399 43 89 53
-0.267378 -0.179878   3.74356 55 95 61
  -1.38508 -0.0722261    3.44011 47 94 58
-1.79443 -1.73023  3.34236 63 118 78
  -1.5762 -0.490725   3.39303 98 133 100
 -1.59425 -0.716801   3.38903 124 133 112
 -1.13923 -0.800063   3.51942 106 129 100
-0.241424  -1.28745   3.76544 54 87 58
-1.43449 -1.19074  3.44015 79 125 88
-1.05376 -0.43374  3.53358 59 115 76
  -1.5104 -0.577622   3.41474 76 117 77
 -1.37821 -0.736933   3.44886 84 124 89
-0.230113  -1.67417   3.75988 58 93 63
-1.03389  -1.1598  3.54534 71 122 81
 -1.07729 -0.383342   3.52743 64 108 73
-0.950387   -1.2831   3.56904 81 126 87
-1.05465 -1.41166  3.54017 69 119 84
 -1.70547 -0.506289   3.36009 61 99 62
-0.395218  -0.59631   3.71929 96 121 91
 -1.74036 -0.493491   3.34818 62 103 63
 -1.55953 -0.856425   3.39949 82 129 95
   -1.012 -0.487193   3.55071 47 99 61
-0.436978  -1.67864   3.70357 59 95 69
-0.625841  -1.04478   3.65447 64 104 70
 -1.50907 -0.591513   3.41304 85 132 90
-1.44861 -1.08921  3.43146 67 103 67
 -1.04973 -0.476612   3.53662 74 120 83
 -1.64242 -0.749134   3.37576 107 136 106
-0.889829   -1.0854   3.58433 72 127 87
-1.31707 -1.37896  3.47103 79 121 85
-1.67955 -1.69655  3.37114 68 124 87
 -1.57544 -0.442275   3.39335 84 111 80
-0.384173 -0.517904   3.71864 102 112 88
-0.190802   -1.5891   3.76655 60 100 66
-0.240811  -1.50763   3.75818 52 96 61
 -1.26696 -0.338763   3.47857 53 104 73
-0.559456  -1.31136   3.67355 58 105 71
-0.163946  -1.79538   3.77429 37 76 45
 -0.7308 -1.45107  3.62678 75 116 82
-0.633992  -1.36218   3.65826 68 112 77
-0.315866 -0.143829   3.72976 91 105 80
 -1.1731 -1.26189  3.50403 68 126 85
-1.59974 -1.10961  3.38889 79 126 84
-0.394044 -0.725428   3.71709 92 107 78
 -0.764721 -0.0568521    3.60727 122 102 77
 -1.11028 -0.832024   3.52259 69 106 72
-0.207089  -1.15364   3.76087 49 86 53
 -1.40526 -0.909277   3.43782 44 102 61
-1.57177 -1.11399  3.40137 51 103 65
-0.269337  -1.16311   3.75005 73 104 70
-0.982282  -1.82072   3.56281 70 108 71
 -1.01924 -0.795921   3.54822 85 119 84
  -1.7978 -0.998425   3.33605 68 120 84
-0.520513  -1.05675   3.68299 46 87 53
 -1.50877 -0.608747   3.40974 54 109 67
-0.795201  -1.22617   3.61041 87 124 90
 -1.46685 -0.922297   3.42496 96 119 90
 -1.41486 -0.127979   3.43575 47 99 60
-0.951457  -1.43036   3.56796 67 109 73
-0.172272  -1.70966   3.77918 60 94 67
 -1.23359 -0.800379   3.49116 54 104 67
-1.35052  -1.1786  3.45977 70 105 73
 -1.01709 -0.985269   3.54966 61 119 79
 -1.56852 -0.722728    3.4057 82 117 87
-1.44895 -1.40149  3.43328 57 103 66
-1.54722 -1.62504  3.40519 84 136 90
  -1.3691 -0.949689   3.45534 65 119 83
-0.41056 -1.58135  3.71665 67 100 71
-0.204414  -1.67328   3.76208 56 90 63
-0.650793  -1.37876   3.64681 65 106 72
-1.13155 -1.25412  3.51807 66 118 80
-0.230692  -0.76923   3.75965 62 107 66
-0.344961  -1.36743   3.73029 43 82 51
-0.671926  -1.10013   3.64417 48 104 67
-1.12288 -1.26662  3.52137 51 106 67
-0.744607 -0.332102   3.61808 133 112 91
-0.752458  -0.39685   3.61854 63 104 64
-1.29575 -1.73477  3.47439 70 110 75
 -1.35255 -0.938433   3.46038 64 116 80
-0.46382 -0.75856  3.69715 102 129 98
-0.797524 -0.693072   3.60214 81 116 83
 -0.67021 -0.656466   3.64122 50 100 63
-0.772448  -1.27172    3.6159 77 123 87
-0.693551 -0.271496   3.63499 149 132 114
-0.707745 -0.666516   3.63188 62 112 77
 -1.55954 -0.874454   3.40078 49 105 68
-1.74145 -1.36775  3.35136 58 108 71
 -1.1794 -1.45915  3.50144 88 124 88
 -1.13954 -0.190705   3.51184 144 128 102
 -1.41227 -0.931476   3.44366 48 106 65
-0.673379  -1.70739   3.64285 94 125 93
 -1.45819 -0.717388   3.43004 88 124 88
 -1.44416 -0.889031   3.43222 51 103 65
 -1.27407 -0.575548   3.47555 70 117 81
   -1.3824 -0.0500297    3.44275 31 75 40
-0.517217 -0.748404   3.68226 64 99 66
-0.245895 -0.828977   3.75653 91 121 85
-0.207043 -0.788415   3.76554 91 122 88
-0.998859  -1.68598   3.55545 56 102 63
-1.00028 -1.82178  3.55577 85 125 88
-1.15683 -0.38915  3.50957 50 109 61
-0.161541  -1.62086    3.7781 53 87 60
-1.71539 -1.20818   3.3624 54 111 70
 -1.79721 -0.486518   3.33056 86 113 82
  -1.4384 -0.180866    3.4253 53 107 71
 -1.46963 -0.522975   3.42233 43 95 57
-1.50224 -1.77681  3.41654 59 118 74
-1.71254 -0.30519  3.35401 82 111 80
-1.63595 -1.25851   3.3839 74 124 86
 -1.4316 -1.43637  3.43651 79 127 85
-0.725337  -1.37495   3.62725 73 117 82
-0.63618 -1.43585  3.65253 62 103 71
-0.827623 -0.212716   3.59543 144 119 97
 -1.46963 -0.965426   3.42283 74 124 86
-1.40169 -1.29277  3.44589 62 104 66
-0.84881 -0.23311  3.58881 147 121 94
-1.16301 -1.09164  3.50992 68 121 79
 -1.63661 -0.930801   3.37674 63 128 86
 -1.34661 -0.388469   3.45453 102 130 92
-1.18022 -1.67434   3.5065 61 109 71
-1.59684  -1.1752  3.39037 65 116 75
 -1.41807 -0.885509   3.43924 40 98 57
-0.918026 -0.176617   3.57052 139 121 97
-0.924879  -1.56092   3.57716 79 123 90
 -0.767484 -0.0154739    3.60786 130 106 82
 -1.12134 -0.331312   3.51905 126 108 84
-0.326208  -1.20929   3.74001 49 89 55
-0.991304  -1.65358   3.56013 58 109 66
-0.592925 -0.539487   3.66141 74 120 83
 -1.68339 -0.609311   3.36851 108 126 100
-1.21596 -1.19772  3.49517 67 124 79
-0.643419 -0.280085    3.6506 147 130 110
-1.07345  -1.5501  3.53655 62 106 70
-0.892463 -0.321874   3.57196 128 112 87
 -1.1306 -1.00443  3.51372 71 122 81
  -1.5409 -0.388871   3.39998 88 130 94
-0.900355   -1.4777   3.57908 60 104 71
 -1.57972 -0.603125   3.39389 84 115 84
-0.83306  -1.2698  3.60032 53 103 66
-1.59143 -1.63779  3.39299 70 129 85
 -1.62149 -0.738853   3.38301 108 130 109
-0.275747 -0.984946   3.74374 82 118 80
-0.825992 -0.604131   3.59936 78 113 81
-1.66801 -1.05703  3.37311 83 131 91
-0.99966 -1.64564  3.55712 82 127 88
 -1.62092 -0.380183   3.37606 72 108 70
-0.833542  -1.53488   3.59787 61 106 67
 -1.3741 -0.59744  3.45108 73 117 82
  -1.3778 -0.706654   3.44821 65 107 71
 -1.26426 -0.442862   3.47873 56 112 73
-0.634301 -0.912194   3.64599 82 119 85
 -1.42811 -0.790255     3.438 63 110 74
-0.31578 -1.00306  3.73194 90 128 87
-1.74681 -1.58959  3.35044 73 125 86
-0.918102  -1.39158   3.57598 61 106 73
-1.05758 -1.34898  3.54206 71 121 84
 -1.01398 -0.688274   3.54871 85 119 86
-0.328256 -0.703854   3.73277 98 122 90
-1.55182 -1.11306  3.40602 49 105 66
-0.354883 -0.219808   3.72142 81 112 81
-0.893422 -0.239686    3.5763 130 108 87
-0.190322  -1.51188   3.76931 48 88 51
-1.54276 -1.33945  3.40523 74 111 77
-0.916772 -0.543263   3.57607 48 98 63
-1.69388  -1.3827  3.36336 62 113 72
-0.571723 -0.519442   3.67033 56 107 64
 -1.69729 -0.337657   3.35899 83 114 83
 -1.27291 -0.602902    3.4766 65 115 77
 -1.29352 -0.997997   3.47232 69 126 83
-0.573436  -1.80302   3.67388 67 104 70
-0.653025  -1.35187   3.64543 64 101 68
-0.624836  -1.74683   3.65411 80 127 83
-0.447354 -0.533973   3.69327 66 106 69
-1.11667 -0.76717  3.52221 90 110 82
-0.144906 -0.830733   3.78621 95 111 82
-0.276566 -0.657646   3.75036 90 124 87
-0.222068  -1.39487   3.76283 42 83 51
-0.378982 -0.609212   3.71963 90 115 86
-1.66073 -1.00635  3.37189 68 123 83
-0.284178 -0.706314   3.74744 61 102 62
-1.14038 -1.75799  3.51971 85 123 86
-0.503415  -1.29586   3.68615 64 112 74
-0.387973  -1.63255   3.71629 65 98 71
-0.578705 -0.599063   3.66112 51 101 66
 -1.81246 -0.239465    3.3259 77 121 85
-1.72974 -1.53186  3.35258 49 100 67
 -1.79794 -0.738348   3.33508 108 138 102
-1.53284 -1.44129  3.41653 78 131 87
-0.699819  -1.38841   3.63802 79 120 86
-1.82162 -1.24683  3.32736 82 133 92
-0.367594   -1.3803   3.72242 44 83 54
-0.295298  -1.44359   3.74193 62 89 58
-1.24482 -1.45064  3.49342 80 128 90
  -1.00766 -0.0717307    3.54313 125 107 83
-0.319694  -1.47231   3.74407 60 83 63
-0.658225  -1.36946   3.64703 66 107 73
  -1.1622 -0.666263   3.51264 108 118 93
-1.61692 -1.48401  3.38595 68 123 83
-0.229543  -1.65953   3.76459 43 78 48
-0.894055  -1.77081    3.5835 66 116 79
 -1.74713 -0.957558   3.34911 56 104 66
 -1.75899 -0.490296   3.34176 79 106 75
 -1.58218 -0.838604   3.39662 102 133 102
-0.417661 -0.750185   3.70489 92 106 81
 -1.03683 -0.409539   3.53941 65 112 76
-1.23726 -1.01658     3.49 66 112 75
-0.838719 -0.786876   3.59787 45 95 58
  -1.5152 -0.131639   3.40745 49 94 55
-0.995062  -1.55582   3.55364 63 104 70
-0.697239 -0.429312   3.63204 49 93 60
-0.591478   -1.1665   3.66424 78 130 91
-1.09643 -1.77376   3.5275 68 110 72
-0.567899 -0.730619   3.67534 75 110 78
-1.41701 -1.34946  3.44389 61 109 71
-1.04054 -1.31541   3.5438 54 101 65
-1.51124  -0.4244  3.41386 92 111 92
  -1.8304 -0.861673   3.32524 65 109 76
  -1.05971 -0.0118223    3.53631 130 115 94
-0.589608 -0.401894   3.66095 104 117 89
-1.61033 -1.62333  3.38876 55 116 72
-0.999964  -1.46639   3.55834 51 104 62
-0.320133  -1.54973   3.74036 61 91 65
-0.497996  -1.74177   3.70139 66 94 69
-0.679189  -1.24482   3.63953 59 103 67
-1.79413 -1.01412  3.33652 50 102 64
 -1.38621 -0.695746    3.4489 71 111 76
 -1.78047 -0.920834   3.33758 51 101 66
-1.58966 -1.07352  3.38992 75 123 83
 -1.66323 -0.293163   3.36581 68 99 65
-1.72847 -0.90935  3.35857 69 117 79
 -1.46905 -0.599883    3.4243 67 122 82
-0.715766 -0.517148   3.62629 34 88 52
  -1.6789 -0.464072   3.36506 68 100 63
  -1.2062 -0.878351   3.49631 79 123 88
-1.47695 -1.37514  3.42589 64 108 72
  -0.691 -1.16679  3.64067 80 120 83
-1.24035 -0.69957  3.48631 50 105 66
-1.54407 -1.54125  3.39969 63 110 66
-0.817188 -0.531407   3.59631 45 97 61
-0.782727  -1.15349   3.61358 68 125 82
-1.10225 -1.40052   3.5296 75 121 84
-1.42685 -1.12231  3.43965 79 110 78
-1.5679 -1.3411 3.40128 65 105 70
   -1.1671 -0.0368369    3.49833 50 111 69
 -1.7856 -1.29416  3.34134 73 123 86
-0.415796  -1.59699   3.71177 46 82 56
-1.73533 -1.40915  3.35477 53 106 64
  -1.4638 -0.159229   3.42044 44 105 63
  -1.2212 -0.571022   3.49431 62 119 76
 -1.70633 -0.265647   3.35228 69 101 62
 -1.42567 -0.637662   3.43816 48 98 61
-1.07891  -1.1073  3.53412 61 113 74
-0.507423  -1.69606   3.68633 56 103 67
 -1.19121 -0.870576    3.5003 72 110 73
-0.74753 -1.31991  3.62432 71 119 81
 -1.49544 -0.037303   3.41553 56 82 53
 -1.35559 -0.925142   3.45661 51 103 65
 -1.4779 -1.63056  3.42782 76 131 92
-1.35328 -1.34693  3.46019 74 110 74
-1.27064 -1.71236  3.48068 76 113 80
 -1.16553 -0.429631   3.50159 49 107 67
-1.08266 -1.20394  3.53188 53 103 66
 -1.63418 -0.099545   3.37866 59 99 64
-0.787379  -1.18903   3.61016 72 129 84
-1.45268 -1.69848  3.42791 65 116 73
-0.510845 -0.154363   3.67686 143 127 102
 -0.828828 -0.0665297    3.59308 129 109 84
-0.411497 -0.409769   3.71162 77 103 74
  -1.01164 -0.0226522     3.5449 115 97 73
-0.509849  -0.42079   3.68279 69 104 74
 -1.06486 -0.769947    3.5433 101 111 87
-0.465543  -1.73346   3.70357 59 91 67
 -1.72224 -0.742416   3.35553 96 127 93
-0.381934  -1.00136   3.72142 86 123 89
-0.573211  -1.37725   3.66786 72 122 85
-1.25289 -1.14368  3.48413 86 128 92
-0.722326  -1.64963   3.63208 90 128 91
-0.195385  -1.25931   3.76912 75 110 78
-1.68308 -1.21051  3.36628 56 117 75
 -1.16905 -0.708809   3.50546 97 128 96
 -1.16933 -0.510274   3.51024 40 105 63
-1.40041 -1.57932  3.44855 71 124 78
-0.810385 -0.398683   3.60362 56 100 65
-0.689348 -0.707667   3.63685 68 104 68
-0.302527 -0.374448   3.73592 76 118 82
-0.693708  -1.18055   3.63487 61 107 68
-0.679465 -0.731644   3.63913 72 116 80
-1.81842 -0.98109  3.32955 70 120 83
-0.514075  -1.34801   3.68479 72 101 73
-0.925182 -0.760431   3.57441 64 104 67
-1.78153 -1.02717  3.34176 46 101 62
-0.243404 -0.428797    3.7552 74 115 81
-0.820683  -0.58809   3.59973 73 104 73
 -1.69066 -0.291456   3.36098 69 96 61
 -1.34086 -0.846359   3.46341 68 125 84
-0.989528  -1.80504   3.55827 76 110 73
-0.585273  -1.67548   3.66581 51 88 57
-1.23822 -1.62879   3.4947 63 131 84
-0.556171 -0.752023   3.67383 67 113 77
 -0.5335 -1.50972  3.67915 68 120 82
-0.684373  -1.15016   3.63725 82 122 85
-0.442698  -1.48219   3.71083 39 84 53
-1.49396 -1.69524  3.42519 85 135 98
-1.30991  -1.4155  3.46617 74 116 80
-0.514903   -0.8204   3.67331 65 98 67
-1.69453 -1.22372  3.36345 73 125 86
-1.74952 -1.10149  3.34926 52 109 68
-1.67669 -1.35139  3.37138 71 128 85
-1.6229  -1.438 3.38287 54 111 70
 -1.01568 -0.830367   3.54499 69 113 77
 -1.12517 -0.142105   3.51021 122 105 85
 -1.74554 -0.634245   3.34801 71 105 68
-1.59661 -1.05237   3.3847 68 113 74
-0.972229 -0.403099   3.55865 53 110 77
-1.73962 -1.16392  3.35502 69 128 84
 -1.58121 -0.854083   3.39542 82 130 92
-1.38885 -0.50128  3.44362 64 108 73
-0.960068 -0.178324   3.56419 126 108 84
-0.56687 -0.71818  3.66482 57 98 64
-0.645733 -0.711734   3.65112 65 103 66
-0.662815  -1.32008   3.64611 52 99 63
-1.75839 -1.14946  3.35054 66 122 83
-0.460495 -0.328128   3.69706 115 115 89
-0.961505  -0.46034   3.55937 34 94 58
-1.46288 -1.02686  3.42607 72 113 79
-0.644153  -1.13855    3.6535 64 120 75
-0.437837 -0.637752   3.70584 95 118 90
-0.997071  -1.39272   3.55575 49 101 65
-0.491469 -0.428888   3.68994 52 91 60
-0.295741  -1.69528   3.74396 54 88 61
-1.74737 -1.55895  3.35244 64 116 78
-0.542309  -1.32407    3.6786 62 106 73
 -1.22773 -0.955241   3.49053 69 111 73
 -1.18661 -0.751519   3.50749 78 118 81
  -0.9014 -0.194421   3.57593 128 114 87
-0.154166  -1.65396   3.78362 45 79 52
-0.913666 -0.716745   3.57721 74 116 80
-0.437729 -0.380704   3.70464 88 106 84
   -1.122 -0.624016   3.51779 68 101 70
-0.868225 -0.370258   3.58712 74 120 84
-0.949251 -0.577561   3.56726 65 120 81
-0.455052 -0.835341   3.70242 78 116 79
-1.65593 -1.28935  3.37496 67 124 83
-0.601974 -0.627615   3.66129 46 96 58
-0.786871  -1.20425   3.61404 60 113 71
-1.27718 -1.73054  3.48087 82 123 91
-1.05488 -1.30901  3.54239 65 115 78
-0.398664 -0.170154   3.70956 84 110 85
-1.23762 -0.57136  3.48827 58 110 71
-0.893681 -0.546903    3.5858 58 108 73
-1.58321 -1.57126  3.39254 75 130 88
-1.56377 -1.68836  3.39708 71 123 84
  -1.18834 -0.0230376    3.49524 49 102 60
-0.773499  -0.71729   3.61329 69 113 78
 -1.38658 -0.613587   3.44103 78 118 83
-0.494232 -0.944323   3.69168 74 119 80
-1.80139 -1.17931  3.33414 65 122 79
-0.980711 -0.182915   3.55707 141 124 104
 -1.48356 -0.734535   3.41848 52 99 63
-1.08035 -1.35009  3.53453 73 126 84
-1.18623  -1.0323  3.50869 79 123 88
-0.234096   -1.2117   3.76254 74 100 73
 -1.58665 -0.155737    3.3874 57 103 64
   -0.1754 -0.0559234    3.76218 41 85 52
-1.21867 -1.27745  3.49409 54 110 73
-0.904923 -0.608709   3.57433 65 106 72
 -1.14598 -0.486511   3.50714 39 104 64
-1.41793 -1.46914  3.44235 83 130 88
-0.659244  -1.21887   3.64614 73 115 79
 -0.755741 -0.0267509    3.60992 116 92 68
-0.189396 -0.871788   3.77186 58 104 65
   -1.8019 -0.0940117    3.32602 69 119 81
  -1.50687 -0.0690783    3.40487 71 107 71
 -1.21263 -0.150822   3.49237 87 97 73
-0.719056  -1.33886   3.63223 59 106 72
-0.646212 -0.819125   3.64774 80 111 79
-1.76326  -1.5904  3.34521 58 113 71
-0.392896  -1.39753   3.71741 53 96 66
-1.04934 -1.53593  3.54336 55 106 65
-1.28046 -1.33741  3.47907 70 108 71
-0.473405  -1.00343   3.69957 67 107 70
 -1.3207 -1.23325  3.47097 92 118 83
 -1.66593 -0.494131    3.3671 76 117 77
-0.541797  -1.49813   3.68032 47 102 63
-0.696817  -1.56258   3.63988 67 118 75
-0.640658 -0.359936   3.64444 125 123 98
-1.04589 -1.44808  3.54123 54 104 67
-0.856549  -1.33897   3.59432 55 105 68
-1.20561 -1.60918  3.49869 68 123 81
-0.395882  -1.02176   3.71116 56 100 65
-1.18531 -1.22111  3.50195 65 122 79
-1.28724 -1.40088  3.48012 67 104 73
-1.65796 -1.09936  3.37467 74 133 89
-1.64934 -1.14368  3.37739 72 133 89
-0.596055 -0.384228   3.65767 109 115 87
-1.58338  -1.4366  3.39559 82 128 91
-0.374781 -0.705081   3.72151 97 117 80
-1.04255 -1.76889  3.54382 83 120 86
 -1.41553 -0.038592   3.43571 47 94 58
 -1.25661 -0.940966   3.48137 77 125 87
-0.161378  -0.89717   3.77259 76 101 71
-1.37181 -1.48321   3.4504 83 125 85
-1.18815 -1.81316  3.50461 80 117 84
 -1.3159 -1.30346  3.47173 79 121 83
-0.939615  -1.16931   3.56656 63 116 72
-1.44303 -1.53012   3.4346 76 118 82
-0.708412  -1.63145   3.63484 82 126 90
-0.575933  -1.66537   3.67245 69 104 74
-1.67849 -1.13568  3.36873 66 136 86
 -1.41256 -0.587219   3.43771 65 109 74
-1.56809  -1.0235  3.39602 65 117 78
 -1.40822 -0.817653   3.43644 54 106 68
-1.72178 -1.24628  3.35683 62 119 78
-1.81892 -1.11918  3.32751 51 100 70
-0.717083  -1.23735   3.63247 73 121 83
-1.34448 -1.71206  3.46441 84 131 89
-1.11905  -1.3511  3.52126 69 124 84
 -1.20353 -0.649746   3.49765 61 109 69
 -1.07211 -0.311248   3.53243 128 111 91
  -1.0794 -0.398654   3.52699 50 102 64
-0.367268 -0.178804   3.70963 73 108 75
 -1.69515 -0.967878   3.36963 59 110 67
-0.73261 -1.28971  3.62634 78 124 87
-1.75904 -1.13614  3.34697 54 109 69
 -1.66738 -0.644363   3.36976 110 115 92
 -1.78672 -0.509241   3.33126 74 116 78
-0.728928 -0.528443   3.62858 50 100 65
 -1.80629 -0.989342   3.33245 52 102 65
 -1.20782 -0.525215   3.49009 50 104 68
 -1.08834 -0.530297   3.52489 54 111 70
-0.860717  -1.28703   3.59034 62 108 72
 -1.00073 -0.803283   3.55446 65 112 70
 -1.09681 -0.842977   3.52623 74 120 83
 -1.57663 -0.204021    3.3978 70 118 78
-0.731707  -1.22833   3.62259 58 105 69
-0.468955  -1.78599    3.6948 60 95 65
-0.837612  -1.29291   3.59916 60 106 70
-0.315165  -1.53649   3.74377 50 80 56
  -1.6863 -0.347341   3.35921 97 123 94
-1.82659 -1.50038  3.32577 65 120 81
-0.53871 -1.36446  3.67575 70 112 76
-1.80748 -1.25617  3.33499 68 119 76
-0.361506 -0.055664   3.71856 120 112 89
-0.572761 -0.176001   3.66091 134 116 94
-0.719502  -1.55672   3.62968 78 122 86
-0.722984   -0.7576   3.62994 64 108 75
-0.306042  -1.48123   3.73668 64 90 65
-0.560954  -1.35407   3.67504 65 110 79
-0.576934  -1.05001   3.66814 71 113 77
-1.39644 -1.30848  3.44182 65 107 71
-1.40681 -1.69573  3.44245 65 122 77
-0.630376 -0.170936   3.64621 141 120 93
-0.737805   -1.4955    3.6248 66 113 77
-1.11242 -1.47478  3.52202 76 124 86
-0.350875  -1.79818   3.72935 65 90 61
-0.392687 -0.614787   3.71237 102 129 98
-0.514435  -1.42172   3.68827 51 98 66
-1.47177   -1.814  3.42731 80 136 91
-0.608198  -1.32267   3.66469 59 107 67
 -1.16144 -0.316395   3.50339 133 121 97
-0.780333  -1.17289   3.61411 58 117 73
 -1.68512 -0.706193   3.36547 82 122 87
-0.758744  -1.70746   3.62237 82 120 83
-1.57573 -1.31813  3.40053 65 110 69
-1.14452 -1.58836  3.51543 74 124 86
 -1.6514 -1.20563    3.374 70 133 88
-0.840027  -1.51061   3.60302 56 100 64
-0.675038 -0.563661   3.63763 57 107 72
-0.851063  -1.22299   3.59337 75 127 88
-1.25285 -1.43341  3.48619 80 115 83
-0.343621  -1.78487   3.72965 77 102 70
-0.639395 -0.315283   3.64531 142 125 105
-0.515138  -1.11676   3.68176 74 116 80
-0.841127  -1.10748   3.59944 73 121 81
-0.592771  -1.31587   3.66292 74 122 82
-0.56936 -1.64143  3.67393 62 106 73
 -1.81055 -0.943778   3.32371 70 120 83
-0.576693 -0.873154   3.67246 47 103 64
-0.183763  -1.21758   3.77548 76 100 74
-0.437302  -1.29283   3.70459 59 104 75
-0.918565 -0.613426   3.57435 73 119 80
 -1.4779 -1.27447  3.42534 75 113 76
-1.00048 -1.29131  3.55626 67 117 80
 -1.05583 -0.653989   3.53612 112 126 101
-0.525854  -1.40519   3.68689 63 109 73
-1.32759 -1.29809  3.46516 85 127 89
-0.196191 -0.638319   3.76498 78 112 75
-0.258192 -0.971314    3.7469 83 115 76
-0.908845 -0.299882   3.57189 126 110 85
-0.515578  -1.43594    3.6865 59 106 74
 -1.74248 -0.317385     3.344 73 104 70
-0.968964 -0.450501   3.55852 47 107 71
-1.78866 -0.73293  3.33947 88 120 83
-0.462034  -1.11558   3.69846 71 106 76
-0.728088  -1.09498   3.62842 63 113 78
-1.03827 -1.13386   3.5474 70 118 80
 -1.46173 -0.507468   3.42458 52 104 66
  -1.16699 -0.0264244    3.49514 36 86 48
-0.669349  -1.52849   3.64441 77 119 83
-1.20474 -1.00053  3.49824 83 123 89
-1.61547 -1.09021  3.39436 68 115 73
-1.48111 -1.49008   3.4232 80 122 86
-0.919317 -0.523037   3.56815 51 96 63
-0.981849  -1.11389   3.55686 53 115 68
-0.858399 -0.513374   3.58529 44 96 60
 -1.75258 -0.136225   3.34053 62 103 69
-1.48602 -1.04734   3.4189 59 109 71
-1.78168 -1.28194  3.34186 74 121 85
-0.992503 -0.106101   3.55193 134 118 95
-1.56499 -0.27387  3.39461 98 116 90
-0.221721  -1.72017   3.76415 58 87 59
  -1.64021 -0.0548667    3.37303 85 98 70
 -1.60237 -0.103665   3.38068 68 108 71
-0.321075 -0.327121   3.72814 78 113 80
-1.69042 -1.28499  3.36387 71 128 87
-0.744386  -1.76491    3.6243 81 112 78
-1.31712 -1.40436  3.46943 61 102 70
 -1.09819 -0.628225   3.52978 105 113 90
-0.594013 -0.973989   3.66693 69 104 71
-1.71846 -1.27514  3.35418 65 117 78
-0.780668 -0.255587   3.60478 147 131 106
-0.415038   -1.2892   3.71248 53 94 64
-0.896035  -1.23727   3.58171 59 116 73
-0.456083  -1.62782   3.70618 42 78 50
-1.34582 -1.40282  3.45942 76 113 79
-0.280393  -1.72674   3.74997 53 82 54
-1.60839 -1.44843  3.38603 73 125 86
  -1.6635 -0.966158   3.38089 67 126 80
 -0.336722 -0.0724727    3.72664 120 118 95
-0.982992  -1.13087   3.56011 64 128 76
 -1.01177 -0.728036   3.55075 83 120 87
-1.29163 -1.80053  3.47871 88 117 87
-0.195084  -1.42235   3.77512 64 100 64
-0.609504  -1.70378   3.65882 57 94 61
-1.67154  -1.0722  3.37174 67 120 74
-1.10962 -1.03846  3.52364 80 125 86
-0.876988 -0.410484   3.57872 56 111 71
-0.410639 -0.339241    3.7105 104 112 88
-0.642035  -1.52568   3.65444 74 116 80
 -1.70636 -0.247605   3.35225 69 100 66
 -1.37417 -0.724808   3.45266 65 107 71
-0.592095 -0.662659   3.65836 55 101 64
-0.141553  -1.52357    3.7804 61 92 58
 -1.37059 -0.889718   3.45287 49 108 64
-0.599963 -0.888923   3.66106 64 116 77
 -1.40685 -0.573892   3.43819 49 99 62
-0.538891  -1.20163   3.67471 56 102 65
 -1.25284 -0.605086   3.47947 63 120 79
-0.710188  -0.49082   3.62095 38 92 56
-1.19231 -1.74791  3.50236 83 125 89
-0.846585 -0.625344    3.5919 65 98 67
 -1.39659 -0.207931   3.44638 49 90 58
-1.15278   -1.729  3.51342 70 111 71
-1.60748 -0.28253   3.3812 80 115 83
 -1.26727 -0.502775   3.48252 51 107 70
-0.694165 -0.640916   3.63187 55 105 70
  -1.16813 -0.0122106    3.50052 40 90 53
-1.66665 -1.66195  3.37496 56 114 74
-1.42855 -1.63755  3.43876 61 123 76
 -1.46333 -0.554254   3.42586 53 105 67
-0.800914 -0.302689   3.60012 150 132 112
-0.63971 -1.76667   3.6537 81 129 87
-0.714619   -1.4385    3.6334 77 119 83
-0.263947  -1.40498    3.7507 48 81 52
-1.52442 -1.79469   3.4159 66 125 79
-0.188417 -0.241557    3.7672 69 104 72
-1.38471 -1.43916  3.44858 80 120 83
-0.265634  -1.00862   3.75223 81 118 77
 -1.47684 -0.323473     3.419 109 129 104
 -1.59625 -0.412966   3.38795 84 113 82
-0.592889 -0.284125   3.66008 151 131 107
-0.241836  -1.56523   3.75948 49 93 58
-0.988122 -0.612842   3.55245 65 111 75
-1.54479 -1.42227  3.40866 76 124 84
-1.59139  -1.1267  3.39601 66 112 73
   -1.4965 -0.0560546     3.4114 63 97 64
-1.19938 -1.66412  3.49888 73 123 85
-0.732554   -1.3219   3.62842 57 109 71
-1.16632 -1.71983   3.5073 78 128 90
-0.449768  -1.28478   3.70509 65 110 79
-0.161555  -1.21851   3.77994 57 90 61
  -1.7481 -0.709611   3.34451 76 114 75
-1.16534 -1.52117  3.51088 78 131 87
-0.231071  -1.37747   3.76718 60 97 66
 -1.36187 -0.341633   3.45174 80 109 78
-1.31111 -1.31664  3.47042 77 119 81
-0.706753  -1.59036   3.63333 73 120 78
 -1.31669 -0.905177   3.46905 59 116 75
-1.25205 -1.27179  3.48684 68 123 81
-0.884167 -0.513532   3.58479 53 103 68
-0.185298 -0.789908   3.76751 87 123 85
-0.972749  -1.25174   3.56148 78 126 86
-1.57777 -1.38558  3.39494 70 115 76
-0.374861 -0.824452   3.72349 46 98 60
-1.59458 -1.45041  3.39324 65 111 74
-1.27695 -1.60461  3.48219 66 121 81
 -0.401981 -0.0307471    3.70731 122 105 85
-0.887774  -1.28584   3.58764 64 111 75
 -1.45391 -0.616423   3.42946 61 108 72
 -1.77934 -0.208533   3.34126 72 107 77
-0.297811 -0.241607   3.73956 80 106 77
-1.63068 -1.15005  3.38115 64 123 79
 -0.43442 -0.589603   3.70024 90 119 88
-1.57063 -1.12608  3.39195 71 119 79
-1.22178  -1.2058  3.49327 67 123 78
 -1.13306 -0.164506   3.50781 127 110 92
-1.29233 -1.25918  3.47589 73 115 77
-0.234469  -1.19048   3.75946 76 102 75
-0.833515 -0.676033   3.59537 68 108 71
-0.866706 -0.266318   3.58316 133 117 94
 -1.28596 -0.263602   3.47284 64 93 65
 -1.12872 -0.478828   3.51464 51 113 76
-0.469092  -1.37417   3.69504 65 100 70
-1.54933 -1.05244  3.40477 53 108 69
 -0.8791 -1.49527  3.58844 76 120 85
-0.94629 -1.83543   3.5682 83 123 88
-1.48705 -1.73041  3.42221 71 132 88
-1.20997 -1.76583  3.50084 74 116 80
-1.48561 -1.53777  3.42246 77 119 83
-1.71902 -0.59379  3.35232 89 121 84
 -1.02642 -0.594215   3.55175 62 109 73
  -1.2922 -0.102824   3.46364 57 101 66
 -1.19988 -0.893252   3.50271 78 118 81
 -1.02984 -0.215511   3.53712 136 116 91
-0.692362  -1.08143   3.63524 48 97 65
-0.903106  -1.07426   3.58303 63 115 76
-0.928236 -0.391833   3.56816 55 109 73
-1.57649 -1.05771  3.39044 72 118 82
-1.67909 -1.75781  3.37497 74 129 90
-0.530519  -1.72446   3.68525 53 97 64
-0.946772  -1.19607   3.56981 63 118 76
-0.562097 -0.118999     3.666 135 117 93
-1.77885 -1.15133  3.33889 57 112 73
 -1.47216 -0.717929   3.42986 67 109 73
-0.632859  -1.64397   3.65591 77 106 75
 -0.29398 -0.204706   3.73579 64 97 68
-0.129569   -1.2351    3.7869 60 99 68
-0.268839  -1.61412   3.74989 48 82 55
-0.923699 -0.403509   3.57299 46 100 64
-0.616149  -1.76531   3.66161 77 122 79
-1.80742 -1.57058  3.33038 58 115 74
 -1.30554 -0.463178    3.4696 68 105 71
-0.886649 -0.272791   3.57778 128 112 87
-1.53658 -1.14359  3.40856 72 114 76
-0.933296  -1.23775   3.57718 69 128 84
-1.75814 -1.19373  3.33962 53 111 70
 -1.60928 -0.800427   3.39008 103 128 99
-0.433196 -0.162326   3.70919 109 113 90
-0.221588  -0.85768   3.75398 81 122 80
-1.71279 -1.34221  3.35472 66 116 79
-0.162791  -1.82385   3.77835 43 78 48
-0.905024  -1.28383   3.57951 72 124 86
-0.722091 -0.747604   3.62979 66 111 78
-0.325207 -0.256918   3.72953 92 115 86
-0.859484 -0.566774   3.58642 61 111 76
-1.33793 -0.88251  3.46332 60 119 73
 -1.06247 -0.671123   3.54274 113 125 101
-1.60556 -1.39619  3.39065 76 118 80
 -1.61988 -0.144223   3.38308 69 115 78
-0.506146  -1.16554   3.68735 78 113 83
-0.381376  -0.54694   3.72247 101 106 86
 -1.03886 -0.716561   3.54567 109 129 102
-0.359365 -0.306515   3.72037 102 113 81
  -1.1757 -0.205451   3.50546 130 112 90
-1.04737 -1.05015  3.54152 63 120 79
 -1.02339 -0.995583   3.54439 52 107 67
-1.07808 -1.07072  3.53314 62 110 72
-0.630993 -0.725346    3.6514 69 109 75
 -1.8085 -1.10283  3.32699 60 111 78
 -0.36566 -0.630517   3.72098 93 117 85
  -1.48603 -0.0520892    3.41829 39 79 45
-0.215703 -0.112341    3.7627 55 104 59
 -1.1489 -0.57322  3.50372 62 112 74
-0.582927   -1.4491   3.66652 72 122 85
-0.657832  -1.71871   3.65186 82 116 83
-0.460416  -1.61137   3.69697 53 89 61
-1.48087 -1.62569  3.42975 79 135 96
-0.923002 -0.193394   3.57125 134 116 92
 -0.45641 -0.510784   3.69509 57 102 63
-1.02236 -1.54876  3.54963 67 111 78
-1.81483 -1.55331  3.33437 68 123 83
-1.11843 -1.16986  3.52189 55 105 67
-0.401956 -0.197291   3.70735 98 116 90
  -1.27383 -0.0540015    3.47218 36 85 53
-0.801076  -1.11172   3.60832 71 124 78
-0.858257  -1.14193   3.58777 72 128 79
-0.362042 -0.740253   3.72379 90 111 80
 -1.0178 -1.26122  3.54446 56 109 67
-0.69419  -1.5381  3.63969 78 123 84
-0.708048 -0.751117   3.62895 58 102 69
-0.992333  -1.03083   3.55573 59 116 75
-1.66956 -1.17757   3.3633 66 132 86
-1.28563 -1.50111  3.48093 75 120 81
-0.21734 -1.63686  3.77174 52 87 57
 -1.75484 -0.154779   3.34024 59 96 63
-0.617696  -1.02092   3.65834 57 103 64
 -1.69972 -0.353527   3.36316 87 114 83
-0.602988   -1.7596   3.65982 60 105 66
-1.81603 -1.27231  3.34205 74 121 85
 -1.57761 -0.928218    3.3942 58 116 76
-0.908609  -1.25402   3.57337 72 129 84
-0.169323  -1.46329     3.783 64 98 65
-1.07863 -1.45028  3.53436 69 122 78
  -1.04347 -0.0726263    3.53062 134 114 90
-0.716718 -0.464654   3.63161 50 104 68
-1.06883 -1.56714  3.53646 88 111 83
 -1.22531 -0.629934   3.48927 48 116 69
-0.436356 -0.922222   3.70661 61 118 77
  -1.31842 -0.0310326    3.45941 32 80 42
 -1.44891 -0.687718   3.42601 65 107 71
 -1.36118 -0.786522   3.45424 69 111 75
-0.977375  -1.26665   3.55664 70 118 76
 -1.03322 -0.123088   3.53812 141 125 100
-0.649638  -1.09384   3.65141 56 105 73
-0.748455  -1.77518   3.62371 67 101 68
-0.984541  -1.17201   3.55339 58 121 76
  -1.20184 -0.0554282    3.48986 49 102 60
-0.870421  -1.08982   3.59018 60 113 69
-0.933817  -1.13539    3.5748 72 120 78
 -1.02423 -0.270598    3.5382 125 107 87
-0.457705 -0.259162    3.7014 141 125 102
   -1.249 -0.283053   3.48137 72 98 69
 -0.682182 -0.0138564    3.62405 117 96 75
-0.585571 -0.749056     3.659 75 108 77
 -1.16225 -0.156407   3.49582 124 105 88
-1.04037 -0.73481  3.54099 104 123 95
-1.38665  -1.6936  3.44553 78 131 85
-0.984572  -1.20252   3.56038 66 117 76
-0.698582 -0.541331   3.63287 40 96 59
 -1.13508 -0.620353   3.51336 54 106 67
    -1.217 -0.0580538     3.4922 58 96 55
 -1.00293 -0.369246   3.54799 56 108 70
-1.64202 -1.62789  3.37524 66 132 84
-1.69155 -1.27334  3.36063 58 113 74
 -1.10416 -0.375003   3.52485 66 114 76
 -1.3278 -1.35988  3.46106 77 117 80
-0.729097 -0.376961   3.62278 126 119 91
-1.03986 -1.21628  3.54348 63 121 81
-0.636281  -1.34133   3.65741 62 109 73
-1.58145 -1.08998  3.39753 62 112 75
-1.63748 -0.95439  3.38018 61 129 82
-0.570236  -1.31732   3.67142 66 113 77
-1.30975  -1.7336   3.4673 86 128 90
-1.18822 -1.79384  3.50355 70 107 73
-0.623973 -0.672827   3.65618 59 103 68
-1.29502 -1.51196  3.47279 78 124 85
-1.38116 -1.71322  3.45049 75 122 80
-0.542265  -1.15386   3.68233 81 110 80
-0.403912  -1.21824   3.71963 63 109 73
 -1.77986 -0.989275   3.34272 54 104 67
-1.18766 -1.27809  3.50275 61 119 78
 -1.03336 -0.584258   3.53972 53 98 65
-1.12676 -1.82967  3.52172 82 119 85
-1.32051 -1.26328   3.4717 87 118 84
-0.674525 -0.232914   3.63621 141 125 102
-0.277892  -1.40581   3.75167 63 94 63
-1.63974 -1.37628  3.37932 73 124 83
-1.42547 -1.77915  3.43343 75 128 84
 -1.63431 -0.982199   3.37957 65 129 79
 -1.23165 -0.988523   3.48963 76 121 82
  -1.61778 -0.0606813    3.37786 73 110 76
-1.16457 -1.79514  3.50791 70 107 74
 -1.46097 -0.194838   3.42398 60 113 71
-1.81676 -1.60277  3.32988 68 126 85
 -1.01477 -0.109303   3.54515 133 117 92
-0.868768  -1.19658   3.59195 82 128 89
-1.31179 -1.05357  3.46954 70 112 76
 -1.44949 -0.123856   3.42155 39 96 55
-0.341678  -1.21881    3.7287 57 98 64
-1.15446 -1.46091  3.51306 72 114 78
-1.00677 -0.55014  3.54896 60 106 69
-0.455478 -0.115484   3.69864 122 116 94
 -0.77398 -0.195662   3.60884 145 128 108
-1.47124 -1.57917  3.42667 76 131 89
-1.66917   -1.616  3.37356 67 124 81
 -1.69485 -0.546329   3.36113 72 112 75
-0.807057  -1.81623   3.60358 81 115 80
 -1.61877 -0.359366   3.37558 85 120 87
 -1.8021 -1.63621  3.33145 66 124 84
-1.35148  -1.7262   3.4579 74 126 80
-1.74669 -1.08515  3.35021 61 116 77
 -1.11881 -0.233728   3.52271 146 129 111
-0.110874 -0.354689   3.80249 57 98 64
-0.104515 -0.641653   3.79669 70 110 73
-0.485329 -0.452354   3.68973 50 97 63
 -1.84083 -0.479476   3.33185 83 108 78
-0.615228  -1.22766    3.6409 62 120 72
-0.393398 -0.635491    3.7158 92 124 85
  -1.22046 -0.0207885    3.47606 33 81 43
 -0.267876 -0.0140491    3.74466 61 84 56
-0.0970618   -1.67845    3.80402 50 83 54
-0.195275   -1.8747   3.81727 207 207 205
-0.146688  -1.87438   3.82298 211 210 208
 -1.33975 -0.125855   3.46089 113 115 93
-0.597542  -1.82737   3.66693 93 127 94
-0.0901654  -0.575434    3.80296 68 109 75
 -1.42017 -0.576211   3.44698 57 107 70
-0.402061 -0.141299    3.7079 77 106 78
-0.104724  -1.87426   3.83652 188 187 185
-0.466298  -1.63221   3.70398 47 86 55
 -1.12372 -0.426214   3.52644 54 114 76
-0.291265  -1.53308   3.74533 35 74 47
-0.991197 -0.883515   3.55682 102 124 103
  -0.6002 -0.147047   3.65244 129 105 79
 -1.51506 -0.870173   3.41721 102 133 102
-0.0837073  -0.483047     3.8093 58 99 65
-0.15602 -1.41187  3.78306 98 123 94
-0.849301 -0.209848   3.58809 125 81 56
  -0.452057 -0.00103517     3.69464 79 57 36
 -1.59357 -0.776991    3.3667 85 105 78
-1.31945 -1.43509  3.47133 66 108 72
 -0.25418 -0.836192   3.75094 102 134 97
-0.310404  -1.40845   3.73927 88 113 84
-1.52303 -1.08327  3.42439 75 127 89
 -1.7299 -1.55024  3.35023 58 109 78
 -1.56715 -0.899705   3.40487 42 100 60
-1.10589 -1.23549  3.52996 65 115 78
 -1.14424 -0.461821   3.50647 39 101 62
 -1.42778 -0.476561   3.42682 42 97 58
 -1.85789 -0.633827   3.32665 92 125 96
-0.829976 -0.392572   3.59768 57 104 68
  -1.1372 -0.619251   3.51812 55 105 68
-1.36274 -0.51272  3.45276 112 141 111
-1.43753 -1.00364  3.43351 118 134 105
   -1.44029 -0.00368506     3.42225 39 70 39
-0.335116 -0.344241   3.72697 62 104 68
-0.564902  -0.57693   3.66441 106 121 98
 -1.35081 -0.419094   3.43948 110 137 102
-0.653826    -1.739   3.65464 85 127 89
-1.85861 -1.13794  3.33269 65 110 79
-1.86655 -0.11677  3.32624 74 113 82
   -1.23787 -0.00327879     3.48311 24 70 34
 -1.34009 -0.950452   3.45793 51 103 67
-0.918786  -1.60767   3.58136 95 126 95
 -1.68643 -0.732261    3.3606 67 105 68
-0.948045 -0.512348   3.56626 81 126 93
 -0.14484 -0.417612   3.77858 58 91 62
   -1.712 -0.320821   3.35358 58 91 60
-0.447032 -0.291336     3.698 147 129 109
-0.447895 -0.290715   3.70498 147 129 109
 -1.44912 -0.753951     3.428 109 134 104
-0.574983 -0.475468   3.67381 45 95 58
 -1.00137 -0.238667   3.54475 109 78 58
-1.86147 -1.67592  3.33194 75 118 88
 -1.78877 -0.361913   3.33682 142 135 116
 -1.59313 -0.823932   3.39228 104 127 99
 -1.43762 -0.990413   3.43537 105 134 104
-0.132112 -0.728975   3.79245 113 140 107
-0.338267  -1.46534   3.72278 97 111 88
 -1.72394 -0.429016    3.3531 110 125 102
-0.331731 -0.146875   3.72096 115 114 93
-0.185513  -1.11114   3.77554 44 83 52
-0.765237 -0.281947   3.61045 127 110 90
-1.24828 -1.77224  3.48739 114 137 108
-1.54322 -1.47689  3.40919 76 132 87
-0.297075 -0.600654   3.73767 105 126 93
-0.118127  -0.22714   3.78525 101 132 101
-0.230855 -0.794677   3.76386 60 106 69
-0.201517 -0.762645   3.77209 109 136 101
-0.255909 -0.736275    3.7545 62 102 67
-1.77939 -0.75631  3.33927 105 137 96
 -1.14998 -0.831956   3.50979 92 115 86
-0.980478 -0.854619   3.56142 102 136 103
-1.01235 -1.76185  3.55226 65 102 68
  -1.3064 -0.269687    3.4665 124 131 100
 -1.56453 -0.250936    3.4047 67 106 75
 -1.58627 -0.570532    3.3905 61 101 67
-0.979475  -1.55495   3.56119 95 135 100
-0.60037 -1.09395  3.66108 104 142 105
-1.32162 -1.67014  3.46866 76 108 71
-0.246187 -0.108903   3.75697 48 89 55
-0.173951  -0.73836   3.77817 70 110 73
-0.477167  -0.70833   3.68978 64 106 68
  -1.25803 -0.0952476    3.49115 45 82 49
-1.60209 -0.71785  3.37961 100 115 94
  -1.08108 -0.0637926    3.52289 128 121 93
 -1.46433 -0.869413   3.42688 55 101 64
-0.361086  -1.16936   3.72508 88 125 84
-1.43784 -1.02133  3.43404 120 144 112
-0.694616  -1.41304   3.62904 84 124 90
-0.491196 -0.880086   3.69471 96 133 99
-0.490706 -0.883973   3.69121 96 133 99
-0.438721  -1.43005   3.70761 43 84 54
-0.992061  -1.69263   3.55815 59 105 69
-0.233314 -0.567663   3.75942 66 100 65
-0.952084 -0.804265   3.60758 104 102 79
-0.373138 -0.901148   3.72623 106 131 102
-1.47102 -1.08359  3.42751 101 143 107
 -1.76669 -0.797139   3.34186 68 110 72
 -1.36303 -0.813047   3.45723 48 103 64
-0.170946 -0.671355   3.77352 57 104 62
-0.171034 -0.671481   3.77503 57 104 62
-0.992178 -0.495245   3.55456 42 100 62
  -1.6797 -0.684846   3.36367 103 128 99
-0.377813 -0.510014   3.71316 106 120 97
-0.121773  -1.40773   3.79264 98 124 95
-1.78408 -1.81787  3.33741 107 140 109
-0.614694  -0.18464   3.65182 114 90 64
-0.643339 -0.545116   3.64601 87 134 98
-0.807202  -1.47183   3.60991 83 124 90
 -1.48041 -0.504815   3.41723 84 130 94
-0.316246 -0.848977   3.73881 56 102 65
-0.116365 -0.269833    3.7874 94 131 98
-0.161077  -1.16386   3.78013 93 111 85
 -1.16086 -0.915144   3.51159 99 139 105
-0.564692 -0.543422   3.66516 55 103 65
-1.04988 -0.61184  3.54042 97 134 100
-0.763194  -1.63639   3.61834 116 141 111
  -1.49584 -0.0230203    3.41034 98 112 87
 -1.72315 -0.137401   3.34678 59 97 60
 -1.33551 -0.959848   3.46051 48 100 64
 -1.35328 -0.270687   3.45465 57 87 53
-0.221177  -1.31191   3.76327 43 79 51
-1.66242 -1.12287  3.36941 52 113 69
-0.21363 -1.13835  3.76525 76 117 83
-0.671817  -1.74257   3.64239 84 124 89
-0.862786  -1.44268   3.59554 57 104 68
-0.752867  -1.11054   3.62179 95 142 106
-0.551852   -1.8041   3.67363 89 126 85
 -1.33586 -0.994464   3.46698 91 143 107
 -1.47868 -0.853058    3.4241 102 142 107
-1.59197 -1.35404  3.39692 69 106 72
-1.7577 -1.8001 3.35023 58 110 72
-0.862981 -0.732155   3.58344 78 124 87
-0.667957 -0.838084   3.64393 109 136 105
-0.838606 -0.649595   3.59883 65 98 67
-0.834901 -0.132407   3.59428 144 126 102
 -1.20901 -0.397624   3.49324 81 136 96
-0.985047  -1.40093   3.55709 53 105 69
 -1.83391 -0.849816   3.32214 107 151 116
 -1.25719 -0.465953   3.48061 83 135 97
 -1.33095 -0.280855   3.46504 94 115 84
 -1.65327 -0.330332   3.36605 103 133 105
 -1.68591 -0.558255   3.36506 67 102 70
-1.40727 -1.45344  3.45026 79 124 83
-0.517293  -1.24441    3.6864 114 145 113
-1.27657 -1.61241  3.47179 63 115 76
-0.331885  -1.17737   3.73398 58 95 62
-1.05708 -0.39877   3.5359 40 92 54
 -1.07993 -0.839758   3.53663 58 106 68
  -1.3739 -0.785711   3.45132 87 135 97
-0.707531  -1.60766   3.63774 68 112 76
-0.934988 -0.722286   3.56726 97 137 102
-0.60251 -1.37595  3.66148 82 128 92
-0.359601  -1.56135   3.72898 104 119 96
-1.32903 -1.20138  3.47287 63 107 72
-0.509078 -0.582173   3.68359 53 99 63
-1.09848 -1.55594  3.53092 61 107 70
  -1.77166 -0.0903597    3.33399 97 126 95
-0.439065 -0.416486   3.70145 65 104 73
-1.18913 -1.30292  3.52187 66 127 83
 -1.51511 -0.194494   3.40416 46 96 59
-0.129003  -1.51285   3.79623 78 108 72
-0.969016  -1.72221   3.56213 66 103 69
-0.322586   -1.5814   3.74231 49 82 55
-1.40471 -1.12675   3.4427 69 107 70
 -1.50906 -0.913867   3.41346 102 137 104
 -0.81717 -0.169285   3.59153 121 106 85
-0.785617  -1.41423   3.61714 55 97 57
 -1.70265 -0.956898   3.36524 100 137 103
  -1.6389 -0.697889   3.38444 111 134 108
-0.905885  -1.42443   3.58099 91 131 97
-0.906907  -1.42542   3.58503 91 131 97
-0.471517  -0.23594   3.69401 129 112 92
-0.471441 -0.235751    3.6935 129 112 92
-1.05234 -1.81324  3.53684 66 103 69
-0.975187 -0.828134   3.55715 88 134 97
 -0.598522 -0.0524576    3.65263 134 116 96
 -1.17374 -0.588021   3.50441 97 137 103
 -1.04634 -0.950326   3.53428 82 130 92
 -0.39581 -0.970678   3.71634 100 135 102
  -1.2501 -0.392011   3.48099 82 130 92
-0.361646 -0.812545   3.72423 73 124 83
-0.394294  -1.23363   3.71367 82 130 92
-0.549066   -1.7142   3.67696 57 107 70
-0.455258   -1.2294   3.70181 46 90 57
  -1.3835 -0.460302   3.44854 46 103 62
 -1.74459 -0.439238   3.34446 122 136 111
-0.231043 -0.887861   3.75979 85 125 90
 -1.6819 -1.66825  3.36867 53 104 73
 -1.30559 -0.594886   3.46766 89 135 99
-0.939271  -1.61417   3.57002 65 100 68
-0.31057 -1.21841  3.74059 87 117 89
 -0.61204 -0.712507     3.658 55 99 64
-0.561898  -1.44939   3.67004 49 101 63
-0.300763  -1.27334   3.74655 45 82 51
-0.109902  -1.44498   3.79043 90 114 88
-1.25748 -1.18598  3.47761 61 106 75
-0.702052   -1.1354   3.63409 59 104 65
-1.72362 -1.72121  3.36564 74 133 87
-1.80601 -1.29216  3.33588 56 105 75
 -1.46327 -0.759265    3.4199 110 141 109
-0.256031  -1.31335   3.75455 78 108 82
-0.400256 -0.871293   3.71932 105 137 98
 -1.8196 -1.69284  3.32978 104 154 117
-1.47706 -0.83135  3.42441 55 101 64
-0.315076 -0.960384     3.739 66 107 67
-1.37344 -1.05785  3.44463 61 102 68
-0.655391  -1.53965   3.64766 88 130 92
 -1.68749 -0.876407   3.36602 53 101 59
 -1.75391 -0.119643   3.34017 88 125 91
  -1.1709 -0.351197   3.50637 75 96 63
 -1.24309 -0.712223    3.4958 52 110 70
 -1.12534 -0.923556   3.52015 89 115 88
-1.11409 -1.14008  3.52889 73 126 82
  -1.6423 -0.732245   3.37819 74 111 78
 -1.15569 -0.795835   3.50977 60 93 62
-0.37912 -1.03442  3.71992 89 124 91
 -1.43002 -0.521587   3.43309 80 135 96
-0.990312 -0.406453   3.55432 63 123 89
 -1.53579 -0.832718   3.40827 103 140 107
-1.16193 -0.96263  3.51122 84 130 94
-1.26103 -1.06927  3.47663 82 123 83
-0.228431  -1.10069   3.76078 89 129 95
 -1.2757 -1.43926  3.47992 95 137 101
-1.78698 -1.57787  3.34356 78 135 92
-0.217642  -1.58288   3.77021 56 98 62
 -0.111076 -0.0591685    3.79488 52 107 67
-0.399128  -1.35498   3.71954 77 123 87
  -1.70891 -0.0846211    3.34515 74 97 71
-0.216973 -0.126393   3.76115 80 127 83
-1.32913 -1.24223  3.46164 124 143 113
-1.41751 -1.27439  3.44191 101 126 94
 -1.54986 -0.516494   3.40214 92 126 89
-0.647951 -0.750523   3.64625 92 131 100
-0.527498  -1.06113    3.6781 46 90 55
-0.973372  -1.69923   3.56304 94 140 104
 -1.47777 -0.559731   3.41944 90 137 101
 -1.70755 -0.713401   3.35768 96 134 97
-0.823986 -0.458462   3.59534 35 93 55
 -1.72673 -0.844257   3.35582 77 111 74
 -1.83505 -0.254739   3.32257 92 132 97
-1.58113 -1.04472   3.3949 100 146 107
-1.03202 -1.19914  3.54559 67 124 83
 -1.50764 -0.555064   3.41146 90 127 94
-0.219949  -1.08311   3.76234 55 90 60
-1.14893 -0.93405  3.51333 58 99 65
-0.878682  -1.21332   3.59071 96 138 100
-0.737243  -1.71763   3.62232 86 124 87
-1.55481 -0.36672   3.3972 88 134 97
-0.806417  -1.06424   3.60709 83 125 87
-0.115152 -0.248191   3.79057 56 100 65
-1.78255 -1.70806  3.34016 75 132 91
-0.709857  -1.74699   3.63175 76 105 75
-0.332009 -0.158132   3.72754 109 114 91
 -1.61481 -0.641347   3.38562 94 136 100
-0.866791 -0.727538   3.58501 87 133 96
 -1.2213 -1.38551  3.49618 75 108 77
 -1.15056 -0.375169   3.51024 100 130 94
-0.666323  -1.30782    3.6468 81 133 95
-0.377553  -1.61552   3.72879 75 105 77
  -1.72723 -0.0423919    3.33812 104 108 81
-0.175292 -0.315242   3.76855 99 124 102
-0.526037  -1.19287   3.68069 87 128 94
-0.132741  -1.62891   3.78213 50 80 54
-1.19461 -1.59219  3.50162 70 127 84
-0.179287 -0.211895   3.76879 68 118 81
 -1.15729 -0.979275   3.50888 50 100 63
-0.658151  -0.81958   3.64511 104 129 99
 -1.15501 -0.846839   3.50342 93 128 95
-0.287084  -0.17193    3.7425 66 97 66
