ply
format ascii 1.0 
element vertex 1245
property float x
property float y
property float z
property uchar red
property uchar green
property uchar blue
end_header
 2.90293 -5.02262  10.2127 181 180 178
0.465313 -0.96004  3.20472 91 63 39
   0.4979 -0.738005   3.19731 77 58 44
0.608224  -0.5544  3.18964 97 75 54
  0.79174 -0.490595   3.20108 108 90 76
 0.568475 -0.705358   3.18994 115 103 91
 0.485756 -0.522926    3.2246 94 84 75
 0.638119 -0.599565   3.18045 80 57 39
 1.48676 -1.74864  4.38658 77 59 47
 0.420397 -0.752901   3.21907 86 62 38
 0.590751 -0.502267   3.19832 75 59 44
 0.752298 -0.730134   3.17724 117 91 68
 3.85375 -4.69255  9.16646 193 192 190
0.744343 -1.10526   3.2461 97 70 43
  0.50463 -0.445988   3.23924 82 77 73
 0.903285 -0.590428   3.20299 84 63 46
 0.255572 -0.441501   3.11203 132 114 94
 0.729658 -0.400739   3.22355 96 83 74
0.765796 -0.75902  3.17989 90 68 47
  1.3673 -5.02007  11.5327 182 181 179
 0.213077 -0.432525   3.11297 119 93 70
 0.725421 -0.599742   3.18623 77 56 39
 0.615099 -0.487466   3.19542 59 43 28
0.824406 -5.02138  10.8129 200 201 196
 2.21306 -4.12191  10.2198 200 199 195
0.507702 -1.13171  3.25443 99 71 47
 0.63683 -1.22255  3.27693 133 103 77
 2.01265 -5.07112  10.7607 136 135 131
  2.9947 -1.22511  4.71146 204 203 199
 0.830314 -0.350244   3.23044 80 61 46
 1.28416 -1.78771  4.43971 95 85 76
 1.40583 -1.59454  4.31428 138 128 119
0.636322 -1.32406  3.35394 118 87 59
   1.0328 -0.892111   3.26342 123 97 72
 0.932919 -0.496355   3.21561 116 100 87
  4.9136 -1.86656  8.08394 208 207 203
  0.26709 -0.434507    3.1117 91 65 40
 0.504215 -0.583827   3.19801 79 58 41
 1.77017 -1.96206  4.27356 81 64 48
 4.82556 -2.28024  8.17541 211 210 208
 2.95543 -5.03894  9.93341 179 178 176
0.0751886 -0.567653   3.19794 136 109 82
0.350314 -0.93204  3.25213 86 59 38
 3.83277 -4.38115  8.72731 187 186 184
 2.17825 -5.02459  10.6672 181 180 176
 4.75433 -1.96916  8.29631 209 208 204
 0.657189 -0.565324   3.18342 102 75 54
 3.81181 -4.45345  8.87692 163 162 160
 1.20511 -1.82827  4.55735 89 72 64
 2.09184 -5.04818    10.86 175 174 172
 0.851064 -0.452743   3.21229 96 71 49
  1.9998 -2.14436  4.05057 74 53 34
0.508548 -1.17054   3.2725 121 99 78
 0.415509 -0.857984   3.20493 92 67 45
 0.923372 -0.404088   3.21908 94 67 46
0.418277  -1.0322  3.24219 86 61 41
 0.351802 -0.635325   3.25565 95 76 61
 0.821735 -0.145417   3.37508 26 21 15
 0.938634 -0.472724   3.22009 89 66 48
 0.792335 -0.925898   3.19236 93 66 45
 0.660819 -0.939793   3.17781 124 94 66
 0.442025 -0.941592   3.21348 105 79 56
0.474284  -1.2541  3.32776 125 94 73
0.944937 -5.05166  10.7343 181 182 176
 0.344354 -0.660408   3.25744 93 72 55
 0.974507 -0.652682   3.21698 114 87 66
    0.42 -0.92329  3.21735 84 58 35
 0.624668 -0.911789   3.17164 98 68 44
 0.563905 -0.835133   3.16071 90 64 47
0.778561 -0.90051  3.18751 113 92 75
 0.818531 -0.846649   3.18932 85 64 47
 2.05419 -2.16022  4.00863 76 50 33
 0.590885 -0.702145   3.18387 99 84 77
  0.27856 -0.895985   3.28764 75 49 32
0.443751 -1.13906   3.2859 115 89 66
0.464701  -1.2887  3.35589 105 75 47
 1.76289 -1.92853  4.29766 88 70 58
0.541049 -1.22834   3.2979 108 76 51
 1.85877 -2.06427  4.16644 94 75 60
 2.94244 -5.09224  9.87957 120 119 115
  0.61304 -0.878941   3.16355 103 75 53
 0.261051 -0.658862   3.30211 122 118 106
 1.34546 -1.67062  4.37298 86 68 54
   4.4794 -0.959784   7.24769 208 207 205
 0.671488 -0.450884   3.20427 63 46 30
 0.49539 -1.10672  3.25073 114 84 58
   1.0029 -0.887029   3.25256 91 64 43
0.392507 -2.45052  11.5482 134 133 129
0.446108  -1.0104  3.23198 91 64 43
 1.90668 -2.12617  4.12377 95 72 54
 0.340845 -0.799101   3.25286 90 69 52
 2.98689 -5.04948  9.92081 182 181 179
 0.584114 -0.920744   3.17814 110 80 54
 1.55023 -1.92651  4.46074 119 109 100
 1.83728 -2.05027  4.17791 61 44 28
 0.639925 -0.762696   3.16719 61 43 29
 0.292984 -0.724323   3.29342 65 47 27
 0.429691 -0.959581   3.21954 91 63 39
 0.559843 -0.884695   3.16581 87 60 39
0.386694 -1.03775  3.26192 87 61 38
 1.61256 -1.84274  4.43234 99 86 77
 0.678583 -0.617249   3.18375 90 69 50
 2.56222 -5.08879  9.86971 147 146 142
 0.354034 -0.651565   3.25464 71 48 30
 0.412545 -0.978989   3.23359 95 64 44
 0.326657 -0.954656   3.27149 81 54 33
 2.15152 -2.27632  3.89367 81 55 38
 0.313882 -0.629169   3.26756 94 81 72
 0.554344 -0.640522    3.1855 102 77 55
0.604398 -1.35697  3.37556 110 80 56
 0.936615 -0.733092   3.21526 101 75 58
 1.62163 -1.85188   4.4216 53 40 31
  0.71924 -0.363251   3.23756 61 48 39
 0.352935 -0.408446   3.11691 109 83 58
 0.318785 -0.938895   3.27441 99 72 51
 0.272622 -0.403011   3.11041 103 76 55
 0.577679 -0.722762   3.18773 89 72 56
0.483953 -1.31403  3.36697 126 95 67
 0.506572 -0.987243   3.20117 107 77 49
 1.45809 -1.71348  4.38079 87 73 60
 2.07636 -2.07172  4.02187 75 59 46
0.643094 -1.23805   3.2863 109 78 50
  0.62589 -0.940232   3.17679 115 83 68
  1.10483 -0.791648   3.29095 101 78 60
0.523998 -5.02068  12.0984 107 106 102
 0.174707 -0.693227   3.38367 85 69 56
 0.681214 -0.371427   3.23346 44 30 19
 1.54583 -1.70495  4.39365 73 56 40
 0.521164 -0.466257   3.22522 88 75 66
 0.838034 -0.566248   3.19796 104 85 70
 0.803059 -0.477018    3.2029 80 61 44
 0.826092 -0.566496   3.19986 73 56 46
 1.33184 -1.75065  4.40131 76 62 51
 0.741931 -0.613703   3.18733 84 66 52
 0.635168 -0.403384   3.22589 45 29 16
 0.485102 -0.714048   3.20061 83 66 50
1.47812 -1.6824 4.34981 89 70 56
 0.997612 -0.963541   3.28255 114 92 78
 0.297934 -0.417487   3.11001 118 92 69
0.636118  -0.4601  3.20468 66 49 33
 0.778867 -0.964911    3.2031 121 97 73
 1.88268 -5.04825  10.1901 156 155 151
 0.703501 -0.996738   3.19754 110 83 62
 1.34794 -1.62423  4.35218 78 64 51
 2.06782 -2.02797  4.05683 74 58 45
0.311748 -1.02928   3.3073 89 65 41
 0.792407 -0.386096   3.21656 104 90 79
 1.67135 -5.03296  10.2562 194 193 189
 1.63798 -1.88342  4.40148 72 56 43
 0.692506 -0.687989   3.18241 123 109 96
 0.877306 -0.390178   3.21718 85 72 56
 0.891876 -0.826929   3.20554 101 75 52
 0.650457 -0.613648   3.18029 109 88 71
 2.11711 -2.13682  3.95751 63 46 30
 0.724824 -0.943222   3.17619 112 85 58
 0.333158 -0.968174   3.26987 98 71 50
 0.358254 -0.673619   3.25166 61 43 29
  2.0074 -2.03444  4.08946 73 52 35
  1.2518 -1.74916  4.45578 63 45 31
 0.73172 -1.03843  3.21732 123 106 90
 0.80219 -1.06116  3.24229 103 76 49
    1.012 -0.819036   3.24701 88 62 47
1.61457 -1.8214 4.43944 99 86 77
0.477554 -1.23672  3.31745 106 76 50
 2.08405 -2.04484  4.04257 75 59 46
  0.41072 -0.756669   3.22154 84 63 44
 0.175694 -0.413269   3.12674 78 56 35
0.728259 -1.33033  3.35723 127 97 73
0.587625 -1.00657  3.20285 111 97 84
 2.19423 -2.32913  3.83795 99 76 60
 0.776385 -0.351622   3.22749 73 56 40
0.433972  -1.2728  3.36274 109 79 51
 0.458346 -0.770442   3.20986 67 50 32
0.561547 -1.07452  3.21626 109 79 55
 0.379555 -0.741503   3.23401 101 74 55
 1.39995 -1.70065  4.36554 94 73 56
 0.334022 -0.813053   3.25929 104 87 69
  1.7222 -1.92403  4.32923 62 44 32
 2.0658 -2.0585 4.03785 54 40 27
 0.224232 -0.923082   3.35465 84 59 37
0.686187 -1.17574  3.26112 123 92 64
0.332203 -1.03114  3.28736 101 73 51
 0.443958 -0.789988   3.20499 69 50 33
  0.44382 -0.702361   3.21066 86 65 48
 0.956969 -0.679344   3.21834 95 73 50
0.365618 -1.03121  3.27263 101 75 52
 0.111822 -0.480797   3.15834 92 65 44
 0.612104 -0.632828   3.18095 95 70 50
 2.11571 -2.17378  3.94223 77 56 39
  1.06469 -0.808662    3.2646 109 92 74
0.849641 -1.05649  3.25831 98 76 55
0.394615 -1.18861  3.32637 106 76 50
 0.284127 -0.758162   3.28918 84 61 45
0.467382 -1.12893  3.26746 111 85 62
 0.442871 -0.902864    3.2071 98 72 49
 0.554091 -0.617119    3.1867 96 69 48
 0.534649 -0.609229   3.19125 89 64 42
 0.660445 -0.867157   3.16125 91 63 41
 0.300544 -0.688117   3.28048 68 46 33
0.437019 -1.22197  3.32824 117 83 56
 0.539338 -0.895869   3.17358 101 76 54
0.367937 -1.01434  3.27081 90 64 41
0.634278 -1.07257  3.21769 106 78 54
 0.686655 -0.523564   3.18346 69 48 31
0.923833 -0.73878  3.20876 92 66 49
 1.30461 -1.70373  4.40285 80 66 55
 0.858897 -0.391168   3.21865 98 86 74
 0.204083 -0.469225   3.11676 101 75 52
 0.652073 -0.839628   3.15934 88 61 40
0.885904 -0.47976  3.20427 96 73 55
 0.574227 -0.404619   3.23818 69 52 44
 0.648656 -0.404343   3.22319 48 32 19
 2.07095 -2.08701  4.03328 57 41 28
 0.977335 -0.947714   3.26819 106 81 59
  0.68736 -0.634904   3.18216 102 83 66
 0.455386 -0.926469   3.20378 91 65 42
 0.688323 -0.933076   3.17805 106 78 54
 2.05737 -2.10085  4.02513 74 55 40
 0.618603 -0.414833   3.22331 60 44 31
  0.33649 -0.669066   3.26263 65 47 33
0.522275 -1.32476  3.35961 108 77 49
 0.692168 -0.594812   3.18288 90 68 47
  1.5108 -1.76729  4.40333 102 76 59
 0.590657 -0.727503   3.18853 103 89 78
0.538634  -0.6213  3.18847 83 58 36
  0.23799 -0.323327   3.13342 56 37 23
 0.872807 -0.933549    3.2281 97 69 45
0.435081  -1.0141  3.23227 88 63 43
 0.818319 -0.364427   3.22536 104 88 73
 1.04557 -1.22881  3.49811 126 113 104
 0.504872 -0.710198   3.19457 85 64 45
 0.640493 -0.444491    3.2102 66 45 28
 0.310788 -0.927555   3.27882 88 62 39
 0.508397 -0.596745   3.19742 84 62 41
 2.01878 -2.07842  4.04925 58 40 26
 0.954232 -0.561994   3.22233 98 73 53
0.717235 -0.84478  3.16565 100 74 51
 0.527853 -0.476871   3.22221 56 42 31
 0.473646 -0.697204   3.20477 81 60 43
 0.565042 -0.595749   3.18677 81 56 36
 0.731293 -0.770782   3.16305 91 68 50
 0.348301 -0.688145   3.25298 70 52 38
 2.16311 -2.23714  3.86799 86 60 43
  0.6911 -1.20227  3.27462 121 93 69
 0.717045 -0.616603   3.18425 90 69 50
 0.501348 -0.777448   3.19068 69 50 36
  0.81494 -0.802234   3.18723 110 93 83
 0.671601 -0.997317   3.19581 127 105 84
 1.74443 -2.03929  4.27151 71 52 38
  0.62352 -0.759955   3.17483 76 54 41
 1.81914 -2.06139  4.19757 75 56 41
0.710181 -1.01221  3.20656 128 109 92
  0.47149 -0.819108   3.19706 73 54 37
  0.51299 -0.718549   3.19496 96 83 66
0.409927 -1.06316  3.25776 95 67 45
 0.610659 -0.977682   3.18838 115 94 75
 2.01506 -2.05778  4.07694 63 44 29
 0.571584 -0.671664   3.18692 95 73 52
 0.196755 -0.507768   3.12301 105 77 55
 0.439325 -0.724283   3.21289 83 57 40
 0.688673 -0.806186   3.15584 97 72 50
 0.507509 -0.680379   3.19277 86 61 41
 0.947694 -0.937569   3.25313 106 82 58
0.388327 -1.16894  3.31935 116 86 60
 0.61724 -1.17936  3.25601 110 80 54
 1.70708 -1.98519  4.31243 63 47 34
  0.50792 -0.814885   3.18798 72 51 30
 0.651833 -0.973573   3.18526 111 85 62
0.326092 -0.69569  3.26423 63 45 31
5.10028 -2.0304 7.90934 63 62 60
 5.01436 -2.03233  7.98362 64 63 61
5.04977 -2.0787 7.92719 164 163 161
 2.17995 -2.01976  4.01996 209 208 204
 0.497869 -0.821373   3.18242 72 49 33
  1.7274 -1.81823   4.4487 204 203 201
 0.606928 -0.257823   3.32458 108 103 99
 0.809407 -0.537014   3.19993 150 143 137
 0.611927 -0.704505   3.18522 144 139 135
 3.62642 -3.24046  9.33426 57 56 52
0.421999 -0.50608   3.2367 159 154 148
0.458646 -1.15777  3.28637 142 132 122
 1.06309 -1.23022  3.49427 153 143 134
0.857167 -1.19994  3.34618 154 145 136
0.931379 -1.25091  3.39958 100 72 48
0.694775 -0.55672  3.18099 77 54 36
0.517493 -1.02145  3.20883 132 119 103
  1.06526 -0.615897   3.27253 84 59 37
 1.30881 -1.87025  4.41735 47 36 30
 0.986039 -0.987357   3.28547 139 124 117
0.689224 -2.62241  10.7081 254 253 249
  4.53722 -0.131972   8.49866 40 40 32
  1.11167 -0.837154   3.27944 143 130 121
0.474704 -1.06406  3.24729 95 71 47
 0.949015 -0.240462   3.29803 106 96 95
 0.306041 -0.570863   3.22625 93 72 55
0.925047 -1.34091  3.43905 159 147 131
 0.929692 -0.308834      3.25 43 27 14
0.972308 -1.17077  3.41172 153 147 133
 0.478589 -0.387979   3.20969 84 65 50
 0.90208 -1.20098  3.37015 150 143 127
 0.971334 -0.715493   3.22137 121 108 99
1.50656 -1.5648 4.34726 151 142 135
  1.23745 -0.784544   3.34376 125 111 100
0.667219 -1.32806  3.35408 138 121 103
 1.35897 -1.60142  4.32381 111 109 96
  1.03167 -0.455353   3.25986 133 123 111
 1.42884 -1.59464  4.31926 127 117 108
  0.68727 -0.724787   3.17738 118 112 96
 1.21837 -2.42943  3.74589 116 100 85
  1.24504 -0.888712   3.35999 137 124 108
 1.41804 -1.76333  4.38018 106 93 84
0.754154 -1.25768  3.32926 136 119 103
0.837668 -0.38105  3.22586 121 112 105
 0.938246 -0.609618   3.21247 83 56 35
  0.93731 -0.611974   3.20598 83 56 35
0.798562 -1.13788  3.28405 110 80 54
0.765859 -1.42106  3.44042 154 127 106
 0.727061 -0.760889   3.16878 78 55 37
0.855624 -1.03175  3.25217 141 127 114
 1.49193 -1.78431  4.40685 85 67 47
  1.06438 -0.862371   3.27388 90 67 49
0.856784 -1.26734  3.37381 135 117 97
0.361145 -0.61765  3.25154 79 62 52
  1.28141 -0.936603   3.39383 95 68 49
 1.25894 -1.67871  4.41991 100 86 75
 1.13424 -1.86589  4.67146 117 103 90
1.50089 -1.6141  4.3493 87 69 55
 0.942364 -0.950052   3.21255 104 77 56
  1.15475 -0.739088   3.29585 91 68 50
0.715235 -1.21712   3.3003 109 79 53
   1.0286 -0.720978   3.24513 131 115 100
0.599265 -1.23564  3.27899 110 78 53
 1.05116 -1.15034  3.46101 93 81 69
  1.32928 -0.779939   3.38452 132 120 106
 0.849173 -0.852656    3.1994 118 97 80
0.820581  -1.4505  3.49222 163 132 104
 1.30452 -1.60489  4.34888 127 118 111
 0.971554 -0.459483    3.2329 116 97 82
 0.507111 -0.373943   3.22188 84 70 57
0.665064    -1.21  3.27667 135 109 86
 1.02031 -1.03355  3.32591 116 94 70
 1.22276 -1.22655  3.62042 96 71 51
 0.765867 -0.925909   3.18484 122 104 84
 1.09729 -1.28246  3.54632 149 132 124
 1.46649 -1.73131  4.38337 126 116 106
 1.28498 -1.63593  4.37009 79 60 45
 0.599612 -0.955381   3.17478 102 74 50
 1.18216 -1.14309  3.55935 97 81 68
 0.977885 -0.786627   3.23646 116 98 78
  1.19491 -0.863601   3.32352 120 103 85
 1.43679 -1.85357  4.38029 108 99 92
1.08416 -1.8956 4.79345 130 112 98
0.849987 -1.32875  3.39755 127 111 85
0.570595 -1.17169  3.24729 122 90 65
  1.30589 -0.606644   3.40287 142 135 127
 1.15242 -1.83732   4.6298 81 67 56
0.938864 -1.01417  3.28025 116 91 71
0.735426 -1.29742    3.339 106 79 50
  1.5433 -1.57284  4.36446 95 75 64
0.861165 -1.07349  3.26371 92 67 45
 1.22816 -1.63935  4.42437 82 64 52
-0.301606         0   4.30802 177 173 170
 1.10687 -1.89914  4.72305 131 119 107
0.320804 -1.09319  3.32616 96 70 45
  1.22242 -0.920842   3.35337 97 70 51
 5.27168 -2.28737  7.75059 211 210 208
  1.4949 -1.60124  4.34385 83 69 56
0.636979 -1.34973  3.36517 141 114 95
0.482038 -1.19069  3.28464 105 77 53
  1.27209 -0.785222   3.36012 124 108 93
 5.25877 -2.18383  7.73537 207 206 204
 5.25886 -2.07705  7.73221 209 208 206
 5.56603 -2.08335   7.5233 211 210 208
   1.1644 -0.880835   3.30616 88 66 45
  1.14675 -0.817767   3.29588 96 73 55
0.885887 -1.33254  3.41691 111 84 57
  1.10854 -0.132365   3.43996 93 83 73
 5.18304 -1.86625  7.83549 210 209 207
  5.2646 -1.97451  7.73564 210 209 207
  1.08786 -0.734425   3.26798 90 71 54
 0.989683 -0.414302   3.24385 87 60 39
 0.880953 -0.926803   3.22815 103 75 51
 4.93032 -1.23497  8.11094 205 204 202
 0.875667 -0.596179   3.19674 110 97 80
 1.03511 -0.82411  3.25106 115 88 77
  1.06308 -0.728562   3.25077 94 73 56
0.842162 -1.42997  3.48216 126 95 67
0.454201 -1.20106  3.30434 107 76 48
 5.01094 -1.55319  8.01339 207 206 204
 5.08376 -1.75947  7.91058 213 212 210
 4.67067 -1.33826  8.38985 201 200 198
5.01129 -1.7618  8.0163 209 208 204
 1.34955 -1.48259  4.09198 135 116 101
  4.41297 -0.284305   8.65293 198 197 195
 4.56678 -1.23486   8.4419 203 202 198
 1.06561 -1.13117  3.46418 152 140 128
 0.397211 -0.761739   3.22801 135 108 89
 1.10895 -1.30873   3.5702 161 148 129
   4.4835 -0.396122   8.52399 200 199 197
 4.48246 -1.23367  8.53557 202 201 197
  1.05976 -0.888655    3.2692 85 60 38
0.623554 -1.24466  3.29186 106 74 49
 0.262304 -0.485422   3.12209 87 66 45
 1.07488 -1.87244  4.81547 132 113 98
  4.57302 -0.815821   8.44682 206 205 203
  4.39628 -0.812365   8.62536 205 204 202
 4.47358 -1.12932   8.5156 205 204 202
 4.48694 -0.50068  8.54056 203 202 200
 1.09068 -1.08524    3.432 143 131 119
 1.14804 -1.74768   4.6004 83 65 53
  4.21672 -0.812585   8.78602 205 204 202
0.761968 -1.08564  3.24162 123 101 80
0.474842 -1.33217  3.37627 121 90 62
 4.31403 -1.02003  8.72607 202 201 199
  4.31243 -0.914777   8.72233 209 208 206
 4.13202 -1.12497  8.88518 211 210 208
 0.657091 -0.744421   3.17558 96 84 70
 4.39995 -1.02171  8.63119 204 203 201
   1.3018 -0.573264   3.40474 110 88 75
1.49533 -1.4119 4.10942 99 73 50
 4.39558 -1.13008  8.62436 203 202 200
0.781604 -1.11478  3.25063 103 75 51
 0.942048 -0.965181   3.27287 110 83 64
 4.48268 -1.02586  8.52977 205 204 202
 0.563615 -0.949883   3.18501 102 72 46
  4.49124 -0.812478   8.54693 205 204 202
  1.09455 -0.981113   3.30754 127 97 69
  1.15385 -0.776621   3.29701 129 109 85
  4.22588 -0.914157    8.8132 211 210 208
 1.18193 -1.25733  3.59185 132 102 74
  3.94716 -0.915679    9.0412 206 205 203
0.717183 -1.09368  3.23727 98 70 48
 0.799532 -0.987687    3.2151 121 96 74
 3.95685 -1.01947  9.06556 205 204 202
0.785209 -1.46454  3.49903 164 134 106
  1.83309 -0.015083    3.1943 173 169 158
1.27036 -1.7688 4.44085 63 45 31
  1.04529 -0.965309   3.28836 116 88 66
 0.568747 -0.705093    3.1905 115 103 91
 0.161009 -0.449838   3.12741 98 72 49
 0.902592 -0.590119   3.20282 84 63 46
 0.694911 -0.822915   3.15462 103 77 52
  1.2442 -1.89511  4.45812 56 43 34
 0.768887 -0.491073   3.19769 79 53 36
0.692312 -1.22044  3.28556 106 82 54
  1.07638 -0.919822   3.28055 118 88 62
   1.2274 -0.957725   3.36652 128 103 81
 0.74077 -1.44363  3.45813 120 89 60
 0.285802 -0.455072   3.11374 92 65 44
  1.31663 -0.911844   3.40044 121 98 80
  1.15427 -0.685169   3.28661 96 80 64
 0.900823 -0.648851   3.19354 77 52 30
 1.28919 -0.91728  3.39155 91 66 44
 1.32856 -1.62028     4.34 83 65 51
0.169925 -1.10794  3.49608 110 85 65
 0.973927 -0.654873   3.21533 118 98 74
 1.05432 -1.19421   3.4761 106 85 68
0.956092 -1.32668  3.45353 114 86 65
0.913383 -1.40171  3.47186 144 113 85
0.633144  -0.7945  3.17581 92 65 48
0.909915 -1.35232  3.44109 114 89 67
0.398539 -1.36654  3.46964 124 93 65
 0.778926 -0.520523   3.19769 92 66 53
 2.14641 -2.31665  3.90727 108 82 59
 1.0657 -1.0967 3.43429 126 118 107
 0.919098 -0.762807   3.21154 107 89 75
 0.324813 -0.985941   3.27997 81 54 33
 1.56827 -1.59233  4.37763 126 105 88
  4.48595 -0.232137   8.53213 196 195 193
 2.00602 -2.18715  4.04854 109 82 61
0.795021 -1.45139  3.48719 132 103 73
 1.15287 -1.86641  4.64045 96 86 77
0.392025 -1.26352  3.37838 116 85 57
 4.44509 -0.80888  8.59868 204 203 201
  1.01566 -0.998049   3.30236 137 119 105
1.09859 -0.6778 3.26736 105 87 67
 0.403884 -0.505343   3.21865 106 93 84
 0.252751 -0.484175   3.11587 87 65 42
 0.948942 -0.889379   3.24027 95 69 46
 0.232756 -0.631286   3.28775 141 134 126
 3.3871 -1.2163 7.54552 199 198 196
  1.20966 -0.902175   3.33997 93 67 50
4.26535 -1.0212 8.75979 209 208 206
  1.18217 -0.950934   3.33137 121 93 69
 0.89123 -1.46587  3.54683 123 99 71
 0.406719 -0.651463   3.23641 63 45 35
 0.221368 -0.866283   3.35702 88 67 50
4.08636 -1.1234 8.93541 203 202 200
 0.590889 -0.502472   3.19811 79 63 50
 1.35588 -0.77831  3.39601 100 75 53
   1.2666 -0.568397   3.37552 110 93 77
0.0838524 -0.977638   3.55202 119 94 72
 1.30947 -1.48147  4.06603 105 88 72
  4.39645 -0.968161   8.63191 205 204 202
  4.17806 -0.917115   8.84162 206 205 203
 1.45988 -1.66498   4.3378 101 79 56
  4.49483 -0.546963    8.5504 203 202 200
 0.676297 -0.547191   3.18976 69 43 28
 0.754817 -0.431362    3.2147 64 42 28
0.788954 -1.39944  3.42557 117 86 58
 4.66326 -1.28114  8.37322 212 211 207
 0.835216 -0.933076    3.2205 109 79 55
  3.91135 -0.809223   9.10556 198 197 195
 0.928139 -0.703604   3.20874 91 64 43
 1.29125 -1.48148  4.07724 136 124 110
0.56736  -1.211 3.27598 120 94 67
 0.732701 -0.833961   3.16862 83 61 40
0.693354 -1.33723  3.35841 108 82 59
 0.787562 -0.451689   3.20665 100 83 73
2.10024 -2.2604 3.95524 101 74 55
  0.88116 -0.872536   3.21779 89 68 49
0.631105 -1.12599  3.23236 112 82 56
  1.43313 -0.967654   3.50255 105 71 46
 0.439692 -0.575427   3.23335 95 82 73
 1.94754 -2.10787   4.0848 72 51 34
 0.895637 -0.679105   3.19831 100 72 50
0.430527 -1.19607  3.31754 103 76 49
  1.2483 -1.73599  4.46435 97 77 66
0.425931 -1.15313  3.29615 110 88 67
0.198937 -1.11469  3.45255 111 85 62
 0.250951 -0.585073   3.18164 106 76 48
  0.39113 -0.356403   3.13137 104 80 56
 1.57492 -1.75087  4.42487 122 96 73
0.844714 -1.09386  3.26909 123 90 59
 0.852122 -0.322008   3.23596 76 58 38
0.818726 -1.10588  3.26178 101 75 52
0.649319   -1.267  3.30501 125 99 66
  1.0587 -1.01994  3.33383 129 99 75
   2.30874 -0.0154791    3.22927 190 186 183
0.917487 -1.29181  3.41255 127 97 69
0.670902 -1.28762  3.32648 120 89 60
0.831952 -1.31786  3.38603 110 80 54
 0.230675 -0.441311   3.11145 87 61 38
0.686289 -1.34961  3.36338 108 82 59
 0.778598 -0.964975    3.2029 121 97 73
 0.773038 -0.551898   3.19472 92 74 54
0.692148 -1.43664  3.44508 117 86 57
  0.30911 -0.804059   3.26655 83 56 39
 1.01444 -0.93502  3.27771 121 99 78
0.370162  -1.1296  3.31654 112 82 56
  1.02508 -0.974716   3.29255 102 87 66
 1.46574 -1.25621  3.95013 121 94 73
 1.82918 -2.15524   4.1985 83 57 40
 2.17034 -2.35049  3.87961 112 84 63
 0.192656 -0.895331   3.38418 78 52 35
 0.869206 -0.632599   3.19088 75 54 37
  1.36846 -0.808287    3.4138 88 71 55
 0.901181 -0.778524   3.20573 86 59 38
 0.381124 -0.631574   3.24499 100 88 76
 1.52337 -1.81948  4.41851 104 94 85
0.315796 -0.55169  3.18647 94 72 49
0.728014 -1.24732  3.31156 114 88 65
   1.434 -1.43587  4.09503 129 110 93
 0.802715 -0.451147   3.20866 74 57 41
 1.08538 -1.01686  3.33535 110 80 54
 0.247905 -0.331611    3.1295 76 58 44
  1.09083 -0.855717   3.27436 92 69 53
 1.32701 -1.69085  4.38411 67 51 38
0.305708 -1.17344  3.37845 102 72 46
0.750998 -1.47452   3.5019 149 119 91
0.250935 -0.53485  3.13367 112 84 60
 2.17667 -2.31091   3.8584 106 81 61
0.899563  -1.3153  3.41363 115 84 63
  1.44782 -0.928987   3.48991 106 85 64
 2.09261 -2.09755  3.99539 83 64 49
 0.45576 -1.24491  3.33461 107 77 51
   1.1383 -0.771619   3.28998 90 68 45
0.638187 -1.37966  3.38567 104 78 51
  1.12411 -0.950214   3.31654 120 96 72
 0.361113 -0.389031   3.11368 92 66 41
 1.18167 -1.85761  4.59265 107 97 88
 0.297002 -0.988287     3.302 108 82 59
 0.866151 -0.952136   3.23068 99 75 47
 1.49683 -1.68177  4.37679 88 72 57
 0.492806 -0.534182   3.22324 55 41 30
 0.872062 -0.846491   3.20014 88 67 48
 1.79386 -2.11929  4.24964 94 69 49
 1.37667 -1.84851  4.35336 42 31 27
 0.167808 -0.869674   3.41059 92 71 54
 0.856406 -0.713971    3.1926 94 71 53
 0.262289 -0.474423   3.11612 114 93 74
  1.44786 -0.685249   3.48976 113 96 78
 1.14069 -1.00789  3.34837 110 80 52
0.916216 -1.90998  2.37646 204 199 195
  1.00557 -0.918291   3.27007 116 94 73
0.704658 -0.92957   3.1804 91 63 39
  1.1301 -1.69836  4.58169 100 81 66
 0.272441 -0.403147   3.10908 103 76 55
  1.16889 -0.667212   3.29568 114 96 76
 1.54254 -1.80719  4.41168 98 85 76
0.829897 -1.06212  3.25255 121 91 65
 1.02549 -1.21198  3.46242 101 85 62
   1.2077 -0.761103   3.32432 101 78 62
0.174066 -1.18138  3.53322 120 90 66
 0.740136 -0.997668   3.20589 100 76 52
 0.960874 -0.540303   3.21739 106 79 58
   1.0104 -0.973103   3.28646 132 115 97
0.712807 -1.25854   3.3069 114 90 64
0.893199 -1.07849  3.27341 116 88 64
0.648758 -1.29949  3.33009 114 87 60
 1.22827 -1.79627  4.49424 87 69 55
 2.13665 -2.11383   3.9434 82 65 49
 0.487798 -0.404362   3.23083 107 97 85
  1.02311 -0.923295   3.27697 96 70 47
 0.468252 -0.581488   3.21594 80 62 48
 0.588377 -0.524032   3.19481 54 37 21
0.490485 -1.42743    3.484 122 92 64
  1.21685 -0.713011   3.32747 86 64 43
 0.957968 -0.985297   3.27207 113 92 71
0.352707 -1.17287  3.32728 113 83 57
0.835164 -1.34057  3.40097 114 83 55
 0.779158 -0.457601   3.21256 69 51 37
0.354727 -1.05827  3.28321 106 79 60
 1.34887 -1.82257  4.39597 71 60 56
  1.2282 -1.90177  4.51112 71 54 44
 0.955545 -0.804505   3.22742 85 63 42
 0.733981 -0.903567   3.17611 109 81 59
 1.55013 -1.69286  4.38905 81 62 45
0.157819 -1.18383  3.55981 118 90 66
0.444544 -0.38093   3.1632 118 90 66
0.836198 -0.98631  3.23487 103 79 55
 1.18448 -1.04358  3.39959 115 86 56
   0.8668 -0.659863   3.18813 92 67 45
  1.28317 -0.609887   3.38664 104 101 94
  1.06438 -0.983897   3.30674 113 82 51
1.49531 -1.9175 4.43583 111 101 92
0.456652  -1.0452  3.23164 101 75 50
 0.26653 -1.27646  3.50618 120 90 64
0.879093 -1.43222  3.49203 128 97 69
 1.26875 -1.74373  4.43525 87 68 53
 0.530131 -0.680691   3.19505 81 63 43
0.532473  -1.1724  3.26708 107 75 50
  1.5088 -1.80713  4.40885 88 72 59
  1.3197 -1.50125  4.10454 131 101 75
 0.253001 -0.557834    3.1662 120 92 68
 1.59287 -1.89994  4.43393 87 74 65
 1.58028 -1.69805  4.40743 79 60 43
  1.10725 -0.747872   3.27188 95 69 54
  1.84125 -0.012227   3.55593 195 191 188
   1.0204 -0.866461   3.25475 100 76 52
 0.605296 -0.427153   3.22215 53 35 21
0.408785 -1.16486  3.31089 112 81 53
    2.2772 -0.0179426    3.19198 191 190 186
 1.53513 -1.67412  4.37558 82 61 42
0.549136 -1.22685  3.28925 103 72 44
0.699439 -1.38913  3.40656 128 97 69
0.185889 -1.12785  3.48341 95 67 45
 1.58798 -1.87437  4.41937 92 83 76
0.831674  -1.2738  3.36014 110 82 60
 0.776312 -0.985461   3.20713 98 74 48
0.334089 -1.01368  3.28424 100 72 50
0.590781 -1.39071  3.40142 139 105 78
 0.441672 -0.328037   3.15229 95 73 52
0.315072 -1.21513   3.4027 111 81 57
 0.505042 -0.749676   3.19487 79 59 48
1.42063 -1.3926 4.02958 114 91 73
 1.46064 -1.86353  4.40451 94 84 75
2.09676 -2.0325 4.03507 59 43 30
-0.255288  -2.50559   11.4468 89 85 82
  1.13247 -0.900063   3.29661 84 62 41
0.281752 -1.32927  3.54035 123 93 65
 0.585627 -0.487951   3.20166 57 39 27
  1.21611 -0.808821   3.33565 103 81 60
  1.8785 -2.12148  4.14556 83 61 40
 0.978875 -0.875777    3.2394 100 77 59
  1.10853 -0.953133   3.30316 106 78 56
 1.37931 -1.81462  4.37492 63 53 44
 1.58758 -1.58818  4.39033 103 82 63
 1.32066 -0.79796  3.38402 93 71 57
 0.878781 -0.366738    3.2254 89 75 64
0.632968  -1.2063  3.26714 110 80 52
   1.1291 -0.792533   3.28846 121 96 74
   4.92006 -0.0339547    7.24932 184 183 179
   1.4497 -0.635953   3.49215 90 78 62
0.635952 -1.16325  3.24595 107 76 48
 0.360789 -0.406348   3.11768 119 93 68
 1.15613 -1.77042  4.62651 99 87 73
 0.323809 -0.690846   3.26936 62 44 30
  1.25502 -0.858376   3.35818 128 106 85
0.387295 -1.07014  3.26665 105 77 55
 1.86005 -2.10187  4.16392 89 66 52
 0.705994 -0.755029    3.1726 94 76 56
0.277724 -1.31964  3.52974 106 76 50
  0.40261 -0.451518    3.1703 90 68 44
 1.49163 -1.81225  4.40794 108 96 82
 2.02638 -2.10388  4.03408 75 53 39
 1.23986 -0.95767  3.36117 101 75 52
0.411128 -1.26072    3.366 118 87 59
0.960247 -0.66669  3.21658 94 67 46
  0.78563 -0.616637   3.18925 79 62 46
0.758733 -1.13391  3.25772 116 86 60
 2.96487 -3.30181  9.30285 177 176 172
  1.07567 -0.432092   3.27848 96 74 61
0.403648 -1.17128   3.3153 106 80 55
 0.23911 -0.87574  3.34234 72 51 34
 0.309785 -0.640998   3.27302 100 86 75
0.744203 -1.19981  3.28782 109 79 53
  0.74937 -0.908263   3.17339 91 69 48
 1.75603 -2.05639  4.26196 82 60 47
 0.55761 -1.19923  3.27087 104 77 50
1.17361 -1.7961  4.5867 94 76 62
 1.40389 -1.81735  4.37524 71 58 49
 0.878099 -0.389006   3.21824 85 72 56
0.902001 -1.44506  3.52831 131 101 73
 0.830996 -0.734769   3.18643 84 63 44
 0.68698 -1.19409  3.25789 111 81 55
 0.768233 -0.631722   3.18728 101 84 68
 0.949994 -0.444656   3.22346 85 60 38
  1.07956 -0.796912   3.27179 96 75 56
0.237261 -1.23697  3.50075 100 70 44
0.444841  -1.2853    3.365 117 87 59
 0.186805 -0.838727   3.38961 77 56 39
 1.34954 -1.83582  4.36569 41 30 26
0.975907 -1.34193  3.47735 116 82 54
0.546196 -1.19591  3.27977 105 78 51
 0.181831 -0.396136   3.12897 82 61 42
 0.987708 -0.635591   3.21958 94 66 44
 0.452753 -0.444375   3.22326 137 131 119
 0.947968 -0.727966   3.21545 96 71 51
 0.904825 -0.855838   3.21273 98 80 58
 0.233557 -0.406973    3.1103 95 68 49
0.999141 -1.04407  3.32752 130 117 101
0.566619 -1.22434  3.28055 107 76 48
 2.08536 -2.08659  4.00034 57 41 25
 0.864231 -0.913589   3.22395 98 68 42
 0.489862 -0.613304   3.20745 90 65 45
0.491752 -1.26303  3.32793 106 76 48
0.327569   -1.102  3.32643 92 66 41
0.753191 -1.45934  3.47523 130 100 72
 0.40411 -1.05082  3.26236 101 75 52
  1.31376 -0.818536   3.38594 102 77 57
 0.941541 -0.514904   3.21773 83 64 49
 0.777474 -0.769109   3.17699 100 81 66
0.628352 -1.40709  3.41427 117 86 58
0.617892 -1.29752  3.32204 126 95 67
 0.641987 -0.941695   3.17453 106 75 54
  1.08635 -0.556366   3.27669 83 66 48
 1.00286 -0.93896   3.2729 102 75 58
 1.47977 -1.80148  4.40485 87 66 49
  1.18441 -0.776699   3.30638 117 90 69
 2.10095 -2.05013  4.02293 74 58 45
 0.222793 -0.660612   3.32867 116 107 100
0.697883 -1.26423  3.31973 120 91 61
  0.57068 -0.473271   3.21003 73 54 39
0.498259 -1.32641  3.37211 111 80 52
 0.264167 -0.706127   3.31663 84 67 51
 0.993813 -0.860073    3.2421 88 64 40
  0.27564 -0.792709    3.2942 79 53 36
0.943797 -0.99274  3.26948 120 98 77
   1.39649 -0.0105472    3.58955 181 177 174
 1.78068 -1.97478  4.26276 47 35 21
  0.81894 -0.549806   3.20077 113 98 93
 0.92282 -1.31179  3.41921 121 96 74
  1.13227 -0.933045   3.30616 94 70 46
 1.90423 -2.02178  4.15047 76 54 41
 0.991884 -0.918868   3.25984 97 70 51
 0.406423 -0.386927   3.13822 100 72 48
 0.869335 -0.709098   3.18648 79 59 35
  0.58229 -0.597609   3.18434 97 71 48
 0.339637 -0.424118    3.1142 109 81 57
 1.61149 -1.87843  4.41543 67 53 42
1.08289 -1.0032 3.32672 125 94 66
 0.952025 -0.772984   3.22414 95 74 55
 1.62418 -1.89021  4.41189 50 36 25
 0.553848 -0.616989   3.18657 96 68 47
 0.361549 -0.879182   3.23916 87 64 46
 1.22269 -2.32863  3.59531 123 95 71
 0.524526 -0.893664   3.18215 92 67 45
 0.742387 -0.722689   3.18438 85 59 36
 1.58493 -1.55567   4.3688 97 71 54
  1.44216 -0.012331   3.54294 166 163 158
 1.41157 -1.71195  4.36898 74 51 35
0.433378 -1.29182  3.37271 103 73 45
  1.12014 -0.772901   3.28185 114 87 66
 1.97602 -2.14481  4.06249 96 71 51
 0.656997 -0.443679   3.20458 65 51 38
  1.03451 -0.579144    3.2452 97 78 61
  1.03906 -0.975067   3.29315 119 94 72
2.08709 -2.1383 3.98806 76 57 42
 0.554143 -0.653698   3.18409 81 56 34
0.198643  -1.1406  3.47192 96 66 42
 0.753431 -0.741612   3.18251 88 63 41
0.162919 -1.20292  3.55725 113 83 59
 0.835483 -0.624139   3.18491 92 67 45
 0.880805 -0.764966    3.2036 93 68 46
0.75859 -1.3685 3.39717 127 96 68
0.347792 -1.31092  3.45811 112 82 56
 0.677056 -0.941697   3.17426 104 78 51
  0.95371 -0.716544   3.21263 117 100 82
0.470393 -1.27572  3.34608 122 92 66
 0.906345 -0.629285   3.19151 78 56 35
  0.11341 -0.577981   3.18903 124 95 65
 1.01476 -1.06616  3.36045 137 127 118
 1.96044 -2.22689  4.11618 101 75 52
 0.821516 -0.977033   3.21737 103 75 53
0.805713 -1.12569  3.26759 111 83 59
 1.73287 -2.01565  4.28895 68 50 36
0.534892 -0.66304  3.19306 95 70 48
0.586445 -1.12223  3.23351 105 75 49
0.689988 -1.29772  3.34141 122 96 73
0.606638 -1.43577  3.44991 124 94 66
  0.92986 -0.650295   3.20209 96 69 48
1.72929 -2.0541 4.29077 80 58 45
 0.450521 -0.969311   3.21768 110 84 61
0.689247 -1.24787  3.30217 127 93 66
0.42848 -1.1227 3.28014 119 85 57
 0.52755 -1.35093  3.39171 113 82 54
 0.925011 -0.859413   3.22091 101 76 54
   1.83742 -0.0201842    3.57651 189 185 182
 0.318579 -0.814926    3.2646 81 60 41
 0.518115 -0.827055   3.18004 73 50 32
  1.07645 -0.858609   3.26852 106 79 58
 0.489522 -0.695338    3.1989 78 57 38
0.720482 -1.22935  3.30331 121 89 64
0.620692 -1.34415  3.36413 116 88 64
 1.63746 -1.67744  4.43682 102 79 63
 0.489964 -0.470051   3.23489 93 84 77
 1.19121 -1.17083  3.57842 114 91 77
  1.00729 -0.593489   3.22141 106 79 60
 1.78184 -2.01252  4.24073 50 33 23
0.585396 -1.20333  3.26972 108 76 51
 0.246342 -0.433261   3.11673 97 71 46
0.279801  -1.0243  3.31624 96 68 46
 0.476675 -0.723986   2.89711 73 54 39
0.581127 -1.24809  3.29573 112 81 52
 0.261698 -0.860905   3.30841 79 58 39
  1.1249 -1.82743  4.65332 89 70 56
 0.139937 -0.660182   3.42244 92 80 68
 1.39309 -1.29653   3.9217 149 132 114
   1.78058 -0.0254252    3.34614 199 198 194
 0.294388 -0.862662   3.28384 82 59 41
0.833187 -1.30122  3.37163 120 90 64
0.969073 -1.21491  3.42098 110 88 67
 0.472403 -0.646952   3.21044 76 55 36
  1.07502 -0.991203   3.31001 114 83 55
0.632792 -1.02152   3.2046 126 109 93
 1.32749 -1.79982  4.40209 86 77 70
 0.699569 -0.597267   3.18756 93 68 46
  1.6908 -2.02898  4.31622 63 49 38
0.254226 -1.16791  3.42875 98 68 44
0.279986  -1.2196  3.44056 101 71 45
0.512549 -1.10624  3.24258 112 82 56
0.0944856 -0.976872   3.54723 106 81 59
 0.123218 -0.529346   3.14364 94 68 45
0.313298 -1.34768  3.54288 103 73 45
 0.305807 -0.968105   3.28669 100 74 51
 2.08295 -2.25691  3.97843 96 69 48
 0.092585 -0.590041   3.20876 120 90 62
0.627616 -1.36987   3.3907 118 90 66
0.662307 -1.03199  3.20708 127 110 94
0.224687 -1.02426  3.38384 89 63 40
0.758074 -1.23864  3.31005 125 104 85
 0.135399 -0.594724   3.18821 122 92 64
 0.396744 -0.742556   3.22461 102 76 53
0.352159 -1.21032  3.35441 106 76 48
0.350318 -1.20728  3.36508 108 78 52
 0.282385 -0.646755   3.28216 111 98 89
  0.62751 -0.370312   3.24549 52 38 27
  1.12196 -0.759921   3.27861 98 71 52
0.842096 -1.13637  3.28291 113 83 55
 0.452785 -0.991649   3.22106 95 68 47
  1.53842 -0.190342   3.77616 90 63 42
 0.232279 -0.964389   3.35742 95 69 46
 1.28841 -1.71265  4.41586 72 56 43
0.989647 -1.35423  3.49791 126 93 62
 1.31963 -1.74874  4.41042 62 44 34
0.355278 -1.02288  3.28128 95 64 43
0.523481 -1.36633  3.39513 121 90 61
0.145585 -1.15753  3.54251 99 71 47
 0.183277 -0.379596   3.13178 68 45 31
 0.453345 -0.983482   3.20764 101 74 53
  1.9349 -2.05477  4.11757 74 55 40
  0.75552 -0.983301   3.19676 114 84 58
0.333235 -1.12142  3.32949 105 75 51
  1.20311 -0.932936   3.34395 117 87 61
 0.597042 -0.990176   3.18766 115 93 72
 0.443933 -0.923324   3.21166 100 74 51
 0.753459 -0.620824   3.18785 102 85 69
 1.36331 -1.71108  4.37355 63 45 31
 0.18605 -1.10184  3.46085 99 74 54
 1.65139 -2.00659  4.36763 51 37 26
 0.267881 -0.512776   3.13101 109 79 55
 0.395815 -0.982201   3.23892 101 73 49
 0.590984 -0.646431   3.18702 99 74 54
 2.02482 -2.15188  4.04583 86 60 45
2.07623 -2.0598 4.03703 62 46 33
 3.50669 -2.22328  9.07004 64 64 62
 0.594465 -0.899568    3.1824 103 73 47
0.251816 -0.87984  3.32153 78 57 40
 0.839852 -0.517826   3.20516 108 94 81
 0.189539 -0.581602   3.15842 122 92 66
   1.4659 -0.933473    3.5095 125 91 66
 0.537429 -0.620008   3.19221 80 55 33
 1.75199 -2.10509   4.2823 76 58 44
 0.359398 -0.985943   3.26122 91 63 41
 0.476857 -0.990183   3.21112 102 74 50
 0.513719 -0.562904   3.20074 69 52 36
   1.0865 -0.660432   3.25496 109 85 61
 0.816701 -0.505655   3.20394 114 102 88
 0.225293 -0.807455   3.35202 70 49 32
0.636558 -1.47399  3.50256 118 88 60
 1.78493 -2.04665  4.22383 69 51 37
0.395542 -1.36713  3.47557 122 91 63
0.224523 -1.15059  3.45486 103 73 49
0.421963 -1.28589  3.36851 113 83 57
 0.920962 -0.615199    3.2029 92 65 44
 1.58003 -1.92123  4.44146 74 64 55
 1.75732 -2.08183  4.27552 76 52 40
0.811046 -1.30944   3.3705 120 90 64
  2.29473 -0.020285   4.21352 201 200 196
0.351068 -1.09979  3.31454 101 73 49
 0.719459 -0.570214   3.18019 84 58 41
0.499427 -1.36625  3.39961 112 81 53
 0.75112 -0.66208   3.1816 88 66 45
0.601949 -1.32833  3.33846 123 92 63
0.732867  -1.0115   3.2068 113 90 72
 0.818162 -0.450238    3.2053 79 61 41
0.532105 -0.90347  3.17749 97 69 48
 0.703997 -0.909769   3.17752 97 69 47
  1.20266 -0.811993   3.33032 109 84 62
1.15665 -2.1988 3.67985 117 89 67
 1.97721 -2.18014  4.06482 101 75 52
0.253708 -1.24113  3.49369 107 77 51
0.654552  -1.3418  3.36859 127 108 91
0.592373 -0.97678  3.19784 121 94 73
 0.186841 -0.997254   3.40791 91 64 43
 0.384906 -0.508835   3.21578 105 91 78
0.907232 -1.24081  3.39426 107 86 65
0.393849 -1.24613  3.35906 110 79 51
0.735008 -1.36363   3.3808 125 94 66
 1.12668 -1.81051  4.65946 96 72 60
 0.542257 -0.917651   3.17946 109 79 55
 0.821698 -0.474298   3.21205 94 73 54
0.195185 -1.29032  3.58681 110 80 56
0.0504613 -0.542407   3.21166 113 85 61
 0.975037 -0.929056   3.25926 106 80 57
  0.40789 -0.582313   3.24624 97 84 75
  1.29719 -0.840647   3.37527 101 74 47
1.24975 -2.3646 3.56966 118 90 66
 0.301991 -0.916366   3.28467 90 63 42
0.67153 -1.4215 3.43238 122 91 60
 0.362718 -0.731896   3.24428 80 57 39
 0.541319 -0.731685   3.18121 110 96 83
0.270744 -1.00185  3.31349 93 67 44
  5.40142 -0.176228    9.0716 197 196 194
0.807708 -1.16798  3.30255 120 93 66
0.824016 -1.14173  3.28765 118 88 60
 0.585917 -0.669407   3.18522 99 77 56
2.14569 -2.2617 3.91783 78 57 40
 0.345937 -0.769129   3.24365 89 65 41
 0.146033 -0.384878   3.15509 71 48 34
0.826261 -1.24606  3.35583 115 87 66
 0.589014 -0.425304   3.22127 64 46 32
 1.95002 -2.06362  4.10311 66 50 37
 0.222226 -0.506928   3.11231 114 86 62
 2.16414 -2.23233  3.90039 76 50 33
 0.595977 -0.553817    3.1968 83 61 38
0.367938 -1.00058  3.26221 95 67 43
 0.860217 -0.166624   3.36786 41 32 25
  0.44737 -0.642215    3.2104 67 46 29
 0.473801 -0.450225   3.24051 148 143 137
  0.23977 -0.647091    3.2977 149 146 139
 2.34797 -3.22852  9.94847 62 61 56
  5.1024 -2.22308  7.91802 65 64 62
 4.93672 -2.22302  8.06193 71 70 68
 5.01639 -2.21935  7.99293 67 66 64
   0.8256 -0.668318   3.18526 82 57 35
 4.96496 -2.17049  8.02602 159 158 156
 1.11248 -4.83913  9.43092 250 250 248
  0.19671 -0.651067   3.35478 150 146 143
  0.60202 -0.392417   3.24524 54 41 32
 1.06257 -1.09753  3.45599 142 135 127
 4.96938 -2.08016  8.02694 158 157 155
 0.276406 -0.632272    3.2648 135 126 121
 -0.201193 -0.0403638     10.571 32 31 27
   1.117 -0.70306  3.27296 140 135 131
  1.11816 -0.702009   3.27822 140 135 131
2.14521 -1.9762 4.08449 204 199 195
  1.14368 -0.580617   3.30509 156 151 147
 1.35655 -1.70126  4.36327 66 48 34
 0.656181 -0.483709   3.19881 120 110 100
 -1.1207 -2.62586  10.7281 255 255 251
 1.29808 -1.10812  3.65763 171 173 168
-1.31631 -5.09716  11.4554 156 157 152
 1.09506 -1.93787  4.81726 100 79 60
 5.01171 -2.12537  7.98214 64 63 61
 0.984476 -0.514874   3.22802 73 50 32
  1.18804 -0.457372   3.35865 136 129 119
0.904663 -1.07941  3.29503 119 89 65
0.856833 -1.20032  3.34537 154 145 136
 3.25944 -3.28866  9.01815 202 201 196
 3.61816 -4.27972  9.33678 49 48 44
 2.08189 -1.93779  4.19039 202 197 193
1.00671 -0.8605    3.25 93 69 45
 2.00182 -2.32852  4.29642 197 197 197
   1.0618 -0.624992    3.2569 88 60 39
 6.16386 -3.49064   6.8162 43 39 36
 6.08084 -3.70222  6.90485 57 56 52
  1.25432 -0.596556   3.36798 159 150 141
  1.09924 -0.460258   3.29056 137 129 118
  1.0159 -1.27441  3.48038 95 68 47
 5.14964 -2.18408  7.89841 214 213 211
 4.61603 -2.25743  11.5936 204 203 201
 3.69973 -1.74746  9.29421 200 199 197
 4.52541 -0.13708   8.4775 93 94 88
0.341235 -0.43093  3.13562 121 91 65
 3.08086 -5.23572  10.1056 140 139 135
0.128923 -5.09872  11.5584 167 168 163
     1.26 -0.349604   3.43377 136 129 121
-0.105151  -5.06372   11.4793 170 171 166
 0.709034 -0.433311   3.22337 61 42 27
  1.21438 -0.182041   3.51095 109 104 98
 1.51298 -1.94648  4.46372 142 131 127
 6.14649 -2.52922  6.87231 204 203 201
 2.04049 -2.34078  4.24109 205 198 192
 5.11859 -2.08146  7.91989 61 60 58
0.707754 -2.59207  10.6605 90 89 85
1.60517 -5.0778 10.0827 197 196 192
 0.908126 -0.881487   3.22241 134 118 103
  1.05816 -0.756015   3.26566 91 69 46
  1.9553 -2.30052  4.33877 194 192 193
 1.04741 -1.11558  3.45105 160 153 145
 1.25051 -1.13199  3.62121 98 76 62
 2.16584 -2.01167  4.05482 224 223 219
 3.78859 -4.08902  8.70027 153 152 150
 0.668021 -0.180301   3.37184 73 68 64
 1.23613 -1.76942  4.48472 72 54 40
 0.560341 -0.394296   3.24474 63 50 42
0.725538 -2.62132  10.6864 99 98 94
  0.81599 -0.881789   3.19692 83 60 44
 0.813669 -0.886162   3.17899 83 60 44
  1.36287 -0.600698   3.44251 91 69 55
 6.14977 -1.34649  6.85893 207 206 204
 1.47336 -1.46866  4.19712 109 84 62
0.158277 -0.50814  3.13625 87 61 38
 0.217892 -0.536079   3.11435 123 95 71
0.66734 -1.3284 3.35604 138 121 103
 1.18313 -1.83955  4.58862 125 112 103
 1.55978 -1.51842  4.34646 151 143 130
 5.04342 -2.12525  7.91788 61 60 58
0.912786  -1.0521  3.28126 101 77 51
 3.20036 -1.27874  3.61338 172 151 134
 0.734246 -0.327836   3.24442 49 31 19
  1.34398 -0.573047   3.43189 150 138 124
 0.902277 -0.986429   3.25812 129 110 95
  1.2519 -1.85194  4.46238 118 110 99
 1.06707 -0.32683  3.30087 90 78 64
0.563547  -0.2884  3.27516 80 62 48
  1.16688 -0.821075   3.30556 106 80 57
   1.3462 -0.825752   3.39464 83 60 42
  1.35545 -0.675449   3.41019 116 108 95
 1.21423 -1.85597   4.5464 132 124 113
  1.28236 -0.819863   3.36122 86 63 45
  1.28163 -0.936987   3.38872 96 71 49
 0.742891 -0.139832   3.41472 59 54 50
 0.365074 -0.529991   3.22098 97 81 68
  1.23348 -0.369455   3.41436 74 55 40
  1.3942 -1.86776  4.35694 45 32 26
 5.30105 -4.57708  7.60451 200 199 197
  1.08901 -0.575092   3.27741 74 55 41
0.774697 -0.15317   3.3859 65 60 56
 0.206626 -0.626399   3.27859 99 81 67
-0.207939  -1.00212   11.2237 5 4 0
 3.11396 -2.97923  8.59732 129 128 126
  5.3906 -4.57875  7.52701 199 198 196
 4.00337 -3.62249   8.9473 196 195 193
  1.06241 -0.484265   3.28676 77 60 44
 2.12077 -2.38544  4.10923 218 214 205
 3.70885 -5.03387   9.1576 188 187 183
0.764739 -1.42028  3.44271 150 127 109
  1.19777 -0.304056   3.39319 112 96 81
0.819722 -1.24698  3.35683 116 84 59
0.866979 -1.23442  3.36563 114 91 73
 1.17969 -1.01589  3.35522 131 101 73
 0.668748 -0.329417   3.25756 68 59 52
  1.36114 -0.930047    3.4294 130 112 92
 2.56221 -4.50103  10.4019 124 123 119
 0.633771 -0.303771   3.28755 53 43 34
 1.37581 -1.64686  4.35264 68 56 34
3.48375 -5.1059 9.35069 136 135 131
5.27647 -4.6111 7.77676 198 197 195
  1.43407 -0.939577   3.49225 160 143 127
0.700493 -4.43136  10.1405 167 166 162
 1.14565 -1.78357   4.6241 121 115 101
 1.01513 -1.17143  3.42717 97 78 64
  5.79789 -0.303579   7.20808 197 196 194
1.12379 -1.9096  4.6873 76 60 45
 0.841079 -0.491934   3.20765 90 67 49
 5.73454 -0.40496  7.32724 201 200 198
  1.28729 -0.748664   3.36617 102 75 56
  1.3175 -1.63416  4.36054 83 55 44
-0.269061 -0.888287    11.316 43 42 38
 0.231606 -0.511016   3.12937 126 99 72
  5.88979 -0.408639   7.12404 201 200 198
  1.51051 -0.908082   3.48418 132 101 73
 1.33363 -1.12123  3.70375 103 87 72
  5.98826 -0.409765   7.04762 202 201 199
  1.27211 -0.785416   3.35959 126 109 93
  5.90489 -0.617633    7.1421 203 202 200
 0.432793 -0.373504   3.14974 104 76 52
0.786185 -1.44037  3.46709 120 94 67
 6.14631 -1.45602   6.8641 209 208 206
  5.81587 -0.403746   7.22956 201 200 198
  5.73326 -0.303812   7.31791 199 198 194
  5.63482 -0.511273   7.39764 197 196 194
   5.982 -2.29268  7.05646 208 207 205
  1.14067 -0.975066   3.32643 104 74 48
  5.96996 -0.516419   7.02786 202 201 199
-0.217621 -0.839399   11.7184 10 6 3
 3.46074 -5.04726  9.44623 178 177 175
  1.03101 -0.550068   3.24124 117 96 79
0.503319 -2.58938  11.3172 111 110 106
6.06673  -1.458 6.95951 209 208 204
  5.54238 -0.614043   7.48142 204 203 201
 1.39222 -1.40658  4.02365 143 129 118
  5.63441 -0.299855   7.39843 196 195 191
1.35382 -1.7819 4.38309 54 41 32
0.523127 -1.05952  3.22487 93 62 42
-0.226215  -2.06753   11.7506 17 16 14
  5.71137 -0.514453    7.2979 205 204 202
  1.40057 -0.937259   3.46395 99 76 60
 3.38611 -5.05996   9.5717 178 177 175
 0.624483 -0.195798   3.33674 50 39 33
  1.06571 -0.834444   3.26542 90 69 52
 0.749607 -0.555914   3.18921 89 67 46
 5.53873 -0.40564  7.47439 198 197 195
 0.698639 -0.928414   3.19184 94 66 42
0.849518 -1.32876  3.39518 127 111 85
0.701426 -0.37159  3.23878 76 68 57
 0.606975 -0.557267   3.18931 93 71 50
3.47188 -1.1078 5.23191 207 206 204
  1.29086 -0.881566   3.38517 102 77 55
  3.38721 -0.889481    5.7147 205 204 202
  1.38887 -0.811792   3.42201 136 117 100
 0.821495 -0.320817   3.22952 96 69 48
  1.23366 -0.999013   3.37634 110 80 54
  5.63416 -0.408407   7.39864 198 197 195
0.124641 -0.73306  3.45184 94 73 54
 1.17758 -1.20511   3.5755 122 103 88
3.44076 -1.1081 5.63807 207 206 204
 3.20618 -1.12057  5.24942 207 206 204
  6.1265 -3.14198  6.94165 205 204 202
  5.08575 -0.617168   7.89881 207 206 204
   5.5169 -0.932785   7.45307 204 203 201
-0.605325 -0.410835    11.508 7 3 0
  4.67048 -0.920749   8.37973 211 210 208
  1.20351 -0.356497   3.38744 129 111 97
  4.65696 -0.712323   8.35064 204 203 201
0.782765 -1.11561  3.25999 102 74 50
 3.02457 -5.04335   9.8875 174 173 169
 4.73795 -1.33897  8.26222 205 204 202
 5.09317 -2.49402  7.93342 211 210 208
   4.6483 -0.817536   8.33541 204 203 201
  4.48222 -0.605038   8.52382 200 199 197
 4.76148 -1.97017  8.31342 209 208 204
0.913581 -1.16377  3.35078 123 97 70
  4.4655 -1.65272  8.50111 205 204 202
  4.74994 -0.609355   8.27039 202 201 199
0.668062 -1.37621  3.38797 114 80 52
  1.3603 -1.56638   4.2352 96 79 59
 4.54871 -1.13083  8.40355 207 206 202
-2.00601 -4.76359  10.9238 75 66 57
  4.8335 -1.86328  8.18923 208 207 203
  1.03865 -0.342171   3.28502 56 42 29
   1.4098 -0.655606   3.46242 90 71 57
  4.75111 -0.715736   8.28034 203 202 200
   3.3318 -0.890385   5.78905 203 202 200
  4.9157 -1.34049  8.09058 203 202 200
0.998789 -1.22728  3.44531 121 104 86
 4.85831 -1.34237  8.22201 203 202 200
  1.43362 -0.623512   3.48776 125 116 101
4.75209 -1.1315  8.2816 205 204 202
-0.249256  -1.93859   11.4846 65 62 57
 0.959624 -0.360859   3.23572 86 61 41
 0.689848 -0.979422   3.18955 110 82 60
 5.08366 -1.75966  7.90789 208 207 203
   0.729503 -0.00879859     3.29467 125 118 112
-0.952884  -5.02635   10.6904 177 178 173
0.449139 -0.24038  3.19517 62 46 33
   5.4916 -0.301958     7.521 197 196 194
 2.49872 -5.03396  10.4015 181 180 176
 4.74833 -1.02449  8.27338 205 204 202
 2.33029 -5.04296  10.6051 181 180 176
  1.28563 -0.921605    3.3868 93 70 52
 5.85478 -0.30344  7.18289 194 193 191
  1.03596 -0.825602   3.25594 115 88 77
 1.70402 -5.08863  10.0787 162 161 157
   1.0062 -0.681216   3.22803 101 75 58
 1.54429 -1.95863  4.46555 123 112 106
 1.24428 -1.82251  4.48736 72 55 47
0.645131 -0.22773  3.33589 91 88 83
  1.03449 -0.142408   3.37438 37 23 12
 1.80021 -5.03131  11.1029 184 183 178
  4.69698 -0.296655   8.29248 197 196 192
 0.523581 -0.666444   3.19522 85 60 38
  1.17412 -0.425331   3.35183 99 80 63
 1.88839 -5.03973  11.0377 179 178 173
 0.867639 -0.996606   3.25093 115 85 59
 0.984949 -0.234242   3.29485 66 47 40
0.632978 -1.38441  3.40158 113 86 57
    5.061 -0.191679    7.9604 200 199 197
 0.381222 -0.400012   3.12838 111 85 60
1.53281 -5.0289  11.361 189 188 184
0.830914 -1.03024  3.24562 101 75 52
0.0598221 -0.727219   3.59189 111 92 77
 3.67149 -5.06243  9.26758 179 178 174
0.247786 -1.00097  3.34581 84 57 38
 4.39246 -1.13099  8.61289 202 201 197
 0.285634 -0.456484   3.11511 91 60 39
  1.18559 -0.564707   3.32739 101 84 68
-0.320819  -0.98263   11.2388 52 49 44
 0.155196 -0.960787   3.43333 81 55 38
 1.27539 -5.02673  11.6345 178 177 173
  3.87636 -0.385491   6.83687 200 195 199
  4.87146 -0.509053   8.12142 201 200 198
0.707734 -1.31598  3.35143 113 83 57
 2.85647 -4.85549  10.0866 175 174 172
2.83967 -4.8398 10.0278 175 174 172
  5.2155 -2.28597  7.78124 211 210 208
  1.07759 -0.916441   3.28079 116 88 64
0.828866  -5.1006  10.7828 209 209 209
 2.51295 -4.86481  10.4402 180 179 177
 5.49329 -5.12748  9.23385 199 198 196
 0.916212 -0.805842   3.21222 85 60 40
0.369759 -1.31139  3.42528 108 78 52
 1.56112 -1.35906  4.13715 147 130 123
 5.22457 -1.97374  7.78782 204 203 201
 1.37443 -1.10614  3.74563 108 94 81
  1.35123 -0.431366    3.4687 74 60 47
 0.926459 -0.404803   3.21888 94 67 46
 2.08295 -2.20474  3.96735 73 52 33
0.635932 -1.22215  3.27341 133 103 77
 3.13166 -4.97877  9.84461 177 176 174
  4.02509 -0.610131    8.9269 203 202 200
 0.45606 -0.28662   3.1859 66 47 32
  1.01638 -0.372184   3.25391 97 70 49
-0.218086  -2.51037   11.2975 47 46 42
  1.03333 -0.309588   3.29187 75 61 50
 3.85772 -1.64708  9.13623 207 206 204
   1.3247 -0.936817   3.41065 96 71 49
 0.329622 -0.330774   3.12369 76 55 38
   3.7687 -0.438831     6.944 202 201 199
0.552048  -1.2609  3.30532 123 92 64
 2.79457 -4.89358  10.2333 178 177 175
 2.78039 -4.97597   10.196 176 175 173
