ply
format ascii 1.0 
element vertex 1213
property float x
property float y
property float z
property uchar red
property uchar green
property uchar blue
end_header
 -1.02022 -0.709907   3.50176 93 87 75
-1.01955  -0.7102  3.50049 93 87 75
 -5.13557 -0.168873   8.33311 191 187 184
-4.80194 -3.23675  8.62375 197 193 192
 -1.32945 -0.561016    3.4581 77 59 45
 -1.07187 -0.863393   3.46239 95 87 84
-0.301489 -0.582755     3.394 71 56 49
 -0.49732 -0.281819   3.49589 69 56 47
-4.80152 -3.33049  8.73731 174 170 169
-4.52735 -2.73325  8.87584 194 190 187
-0.136758 -0.883295   3.26796 121 111 99
-4.54582 -1.34585  8.91373 197 193 192
-5.93787 -1.56736  7.52287 202 201 199
-5.04036 -0.16912  8.42184 182 178 177
-0.261109  -1.43953   3.20742 94 76 62
-0.762381 -0.198734   3.43705 120 93 72
-0.503001 -0.859775   3.14892 61 43 23
-4.54805 -1.78131  8.91052 192 188 185
-5.39729 -0.16797  8.06234 189 185 184
-4.64016  -1.8826  8.83465 189 185 184
-0.184384  -1.60874   3.20934 106 79 58
-0.265305  -1.18107   3.19925 88 64 40
-0.871109  -1.15403   3.32103 118 88 60
 -1.15455 -0.969169   3.49275 113 99 88
-0.531296 -0.792366   3.17415 82 59 45
-0.989463 -0.316888   3.60195 68 61 55
  1.44155 -0.485885   10.4284 52 37 14
 -4.45999 -0.276326   9.00925 193 189 188
-0.514999  -0.83756   3.16089 91 73 59
-0.881361 -0.973158   3.29513 90 67 49
  1.76375 -0.715468   10.5203 31 31 23
-5.38824 -2.30877  8.03932 204 203 201
-0.41191 -1.21308  3.18504 101 72 42
-0.197967  -1.16508   3.22401 92 69 51
-0.0022076   -1.88409     3.3483 109 91 69
-0.718031 -0.361558   3.45195 84 66 52
-0.16043 -1.46927  3.20726 105 77 55
-0.483577 -0.843274   3.15746 90 72 62
-0.530027   -1.9976   3.15315 121 105 89
 -5.2134 -1.56333  8.23592 201 200 198
-0.233003 -0.194531   3.75042 55 36 22
-0.076944  -1.71418   3.28533 113 85 61
-5.19936 -3.85257  9.76172 194 193 191
-1.07429 -1.10069  3.46837 122 103 88
-0.961248   -2.0832   2.81573 91 64 43
-1.05197 -1.07413  3.44736 127 112 93
 -1.0404 -0.23163  3.40484 93 74 59
0.851864 -1.06944  10.5618 67 56 52
 -1.3314 -1.32556   3.7794 150 133 117
-0.340102 -0.896131   3.16589 79 56 38
-4.44965 -1.67226  8.98864 191 187 186
 -5.18201 -0.543097   8.29799 197 196 194
-0.671635 -0.833626    3.1928 97 76 59
-0.671541  -0.83458   3.19026 97 76 59
 -4.5605 -1.99449  8.94117 192 188 187
-0.603097  -1.96251   3.09547 62 43 29
-5.82746 -1.99346   8.8289 197 196 192
-0.913277 -0.443727   3.55657 90 80 71
-0.914179 -0.444387   3.55732 90 80 71
-0.241391  -1.63853   3.20424 103 73 49
0.0439536  -1.78811   3.40024 119 105 92
 -1.20158 -0.613257    3.4642 59 41 27
 -4.80685 -0.813824   7.46971 193 192 190
-0.687348  -1.21121   3.23187 122 92 66
-4.54342 -1.24227  8.90475 198 194 191
-0.831394 -0.431421   3.48471 97 78 64
-4.59274 -2.74101  8.86279 187 183 182
-5.16797 -1.62345  8.27688 202 201 197
-0.314031  -1.86845   3.26065 130 109 88
 -5.1174 -1.97911  7.11457 205 204 202
-4.63777 -1.56306  8.82594 195 191 190
-0.0128115    -1.2646    3.43096 134 124 115
-4.45787 -1.34771  9.01091 197 193 192
-0.270095 -0.755351   3.24952 99 81 67
 -5.35473 -0.654637    8.1052 195 194 192
-0.123998  -1.38232    3.2494 60 43 33
-4.71787 -1.44948  8.70966 197 193 192
-5.17834 -1.08218   8.2925 203 202 200
 -4.48164 -0.485581   9.05547 193 189 188
 1.55954 -1.01217  10.3905 49 33 10
  1.52397 -0.178522   10.5141 48 31 11
-0.987389 -0.156706   3.36836 97 71 44
-0.66102 -1.30869  3.26983 101 73 49
-0.427019 -0.833779   3.16858 62 43 28
  1.78609 -0.928586    10.466 75 65 63
-0.62798 -1.40805  3.31697 123 105 85
-0.0811672   -1.59895    3.24088 96 66 42
-0.894484  -1.02356   3.31804 113 92 75
 0.855733 -0.832529   10.5697 60 49 45
-0.000118523     -1.14773      3.36423 121 90 69
-5.22654 -3.92025  7.32944 116 98 86
 -1.25265 -0.498845   3.48486 75 54 37
 -1.25308 -0.626351   3.44313 54 36 22
-0.00995519    -1.29256     3.43799 137 128 119
-4.37307 -2.74521    9.099 197 193 192
-5.58479 -2.31301  7.88084 200 199 197
  1.79232 -0.411447   10.5224 54 49 45
-0.819321  -2.02953   2.91591 101 73 51
-0.709185 -0.534716    3.4304 77 59 49
-5.25796 -1.50879  8.18639 202 201 199
-4.19963 -2.86061  9.28418 202 198 195
-4.16876 -2.74061  9.23834 198 194 191
 -5.18745 -0.230014   8.30199 188 184 183
-0.824171 -0.524908   3.45648 96 78 68
 -1.06151 -0.778142    3.4737 102 90 78
-5.17857  -1.7195  8.28839 197 196 192
-0.435851 -0.132354   3.32227 117 90 69
-0.946213 -0.106965   3.36307 97 72 50
 -1.16299 -0.293015   3.50845 88 74 63
 -5.4399 -1.08147  8.00933 200 199 197
0.010041 -1.10259   3.3686 88 63 43
-0.282157  -1.74103   3.22627 108 83 63
-0.370194  -0.82919    3.1762 99 78 61
-0.361032 -0.206436   3.41497 95 67 46
-0.552027 -0.455598   3.50577 68 59 54
-0.507144  -1.45591   3.27268 88 69 52
-0.881445  -2.33229   2.79386 115 102 93
 -1.08458 -0.751102   3.49048 110 101 94
 -1.16815 -0.445703    3.5258 58 44 35
0.0119747  -1.40804   3.32026 86 65 48
-1.19463 -1.12283  3.54584 96 74 53
-0.449165 -0.125042   3.31126 82 60 39
-0.659157 -0.942664   3.18881 92 65 44
-0.746756 -0.364736   3.46943 65 47 33
-0.810282 -0.387389   3.48809 65 46 31
  -5.159 -1.83541  8.25804 194 190 187
-0.585616 -0.287231   3.46155 116 102 91
-0.813476 -0.430034   3.47782 56 37 22
-0.800143 -0.581896    3.4283 72 56 43
-0.131732 -0.164684   3.77221 91 65 42
-0.118173 -0.861175   3.29677 129 112 94
-0.109141  -0.09662   3.77625 109 81 57
-0.854431  -1.40888    3.4301 135 114 93
-0.53309 -1.53486  3.30555 92 65 48
-0.346596 -0.301677   3.84222 56 46 37
-1.33594 -1.21449  3.70163 144 125 110
  1.78999 -0.842246   10.4829 66 59 51
-4.47992 -3.94029  8.05909 121 103 91
 -1.09568 -0.644352    3.5043 81 68 59
 1.71486 -0.63495  10.6242 33 26 18
0.984706 -0.86568  10.7635 63 48 25
-1.24351 -0.65388  3.43777 52 34 20
-0.161248  -1.77763   3.26542 122 105 85
-1.16495 -1.04418  3.51568 140 119 102
-1.14996 -0.94361  3.47725 108 94 83
-0.474665  -1.56502   3.24876 81 61 37
-0.474823  -1.56502   3.24344 81 61 37
-0.902809  -2.19511   2.85512 130 111 97
-0.517862  -1.49879   3.27522 125 97 76
-0.274222  -0.25105   3.83098 73 58 51
-0.272085  -0.25159   3.83053 73 58 51
-0.608125 -0.826879    3.1885 64 43 26
  1.76631 -0.543988   10.4512 26 21 15
-1.10857 -0.25642  3.43363 114 87 66
0.179871 -1.54304  3.50078 119 93 76
 -1.03719 -0.313592   3.57636 76 67 60
-0.336433  -0.79934   3.19624 70 49 32
-0.568998  -1.38152   3.28353 110 88 67
-0.502801  -1.14686   3.17573 151 121 95
-0.259679 -0.630544   3.37347 62 52 40
 -1.04915 -0.634899   3.52575 73 64 55
-0.0484313   -1.61165    3.26079 122 92 68
-4.18065 -3.27907  9.25418 200 199 197
 -1.32214 -0.531792   3.46395 62 41 24
-0.470895  -1.22447   3.19381 118 90 68
-0.525192  -1.97746   3.15015 142 116 93
-0.824239  -2.15711   2.91196 95 78 68
-0.882762  -2.20998   2.86091 109 91 79
 -1.34451 -0.400698   3.51969 48 32 17
-0.562052  -1.89822   3.18572 91 69 55
-0.372432   -1.6001   3.20501 88 65 47
-0.764785 -0.849835   3.23653 81 54 33
-0.477461 -0.305568   3.59739 57 44 35
-1.17443 -0.65775  3.46374 57 39 27
-0.722573 -0.764278     3.236 89 70 53
-0.531067  -1.58816   3.28153 81 60 39
-0.76021 -1.96866  2.95482 125 99 76
-0.758918 -0.836662   3.24863 106 84 70
-0.678825  -2.14476   2.99548 115 105 96
-0.918113  -2.08005   2.84635 129 104 82
-0.748606 -0.211987   3.44042 87 61 44
-0.206214 -0.164861   3.73481 85 62 44
-0.0942912  -0.864292    3.30565 101 80 61
0.136104 -1.41486    3.494 84 68 55
-0.639092  -1.49695   3.37968 110 96 83
-1.26586 -2.18751  3.79711 84 66 52
-0.531694  -1.56246   3.28355 105 84 65
 0.352433 -0.158633   11.9704 44 48 60
-0.606874  -1.23144   3.22117 107 79 55
-0.0247298   -1.58233    3.27194 97 67 43
0.0394025  -1.91862    3.3849 112 90 76
-0.206004  -1.65094   3.20691 137 115 91
-5.78526 -1.83591  8.99698 174 173 169
-0.607828   -1.9312   3.11361 55 39 26
-0.209361 -0.733585   3.29663 81 67 54
-0.426939  -1.77255   3.25928 101 78 62
-0.491547 -0.731659   3.20667 77 63 52
 -1.30592 -0.393361   3.50591 78 62 49
0.00118768  -0.858458    3.44945 97 78 61
-0.78434 -1.99764  2.92944 137 109 85
 -1.00589 -0.268984   3.47125 59 40 26
0.0889541  -1.88196   3.44741 99 84 65
-0.597928  -1.39517   3.30166 108 87 66
-0.804378 -0.481836   3.45896 79 58 39
-0.656023  -1.94912   3.06322 74 60 51
-1.04523 -2.40401  2.73683 112 88 76
-0.631723  -1.93632   3.09751 58 40 26
  1.67333 -0.541783   10.5276 21 21 11
-1.13431 -2.23839  2.73465 122 94 70
 1.44449 -0.92167  10.4831 71 56 23
-0.196087 -0.625115   3.42803 55 42 33
-0.948564 -0.215496   3.41934 77 54 36
-1.18334 -1.34674  3.68119 112 90 67
-0.150484    -1.401   3.23808 60 43 27
 -0.65476 -0.409218   3.46353 63 44 29
-0.149957 -0.974518     3.225 112 86 63
-4.53881 -1.82751  8.89256 186 182 181
 -1.1098 -1.29032  3.57788 142 124 120
-0.783017 -0.598233   3.41564 96 82 71
-0.154319  -1.51426   3.20407 105 76 58
-0.15651 -1.14192  3.23939 100 76 52
-0.276219 -0.767305   3.24093 61 42 27
 -1.35719 -0.786426   3.40471 76 53 37
-0.459948  -1.73554   3.26224 129 102 81
-0.00793737    -1.83992     3.35109 139 111 89
-0.337435  -1.69483   3.21707 121 96 76
-0.832696 -0.125704    3.4213 95 82 73
-0.756134 -0.244157   3.45459 86 68 48
0.191662 -1.58676  3.52278 116 89 70
  1.79006 -0.241773   10.4641 54 51 44
-0.0499477   -1.17125    3.32241 88 61 40
-0.0278236   -1.25983    3.40875 96 83 74
  1.66071 -0.589542   10.6241 54 47 41
-0.0220426   -1.79627    3.34379 129 111 97
-5.59007 -3.89345  6.58374 127 108 94
-0.786965 -0.244084   3.46651 105 86 71
-0.698392 -0.564575   3.41662 105 96 89
 -0.2692 -1.71761  3.22358 116 91 71
-0.408718  -1.67522   3.22705 92 70 47
-0.887644  -2.14832   2.87004 134 115 98
-0.161313  -0.84745   3.26641 93 71 58
-0.777546    -1.222   3.28905 109 82 63
-4.35975  -2.8999  9.07273 197 193 192
-0.421705  -1.48976    3.2256 98 71 50
-0.340539  -1.75373   3.22988 99 71 50
-0.402643  -1.64354   3.22237 96 72 48
-0.843331 -0.349556   3.51695 69 51 37
-0.479665 -0.244458   3.42118 91 68 52
 -1.07137 -0.289527   3.51729 83 73 61
-0.830901 -0.905494    3.2698 90 67 49
-0.325273  -1.12321   3.16042 90 62 38
-0.612323  -1.29611   3.25075 109 82 61
-0.0207764   -1.85689    3.34541 150 129 102
-0.108362  -1.25323   3.31197 119 103 90
-1.12215 -1.27219  3.56042 124 103 86
  -0.7085 -0.166481   3.39102 105 77 53
-0.0842436   -1.28138    3.33756 117 106 100
-0.898555  -2.38827   2.74624 104 79 59
   1.4103 -0.484119   10.4457 54 39 18
-0.636894 -0.125241   3.34117 89 63 40
-0.600189 -0.217088   3.37996 100 74 49
-0.358373 -0.877136   3.16326 80 61 46
-0.0515031   -1.14978    3.31272 106 79 58
-1.15938 -1.23237  3.56699 141 108 77
-0.382527 -0.628257   3.31488 49 39 29
-0.606014  -1.01266   3.17868 101 74 55
-0.326437 -0.669746   3.29586 55 42 33
-0.899867  -2.08489   2.85918 104 82 61
-0.571549 -0.819927   3.16591 78 59 45
-0.100481  -1.02369   3.25825 91 64 47
-1.24603 -1.25312  3.64024 119 91 67
-0.568476 -0.317576   3.48733 72 55 39
-1.12278 -1.24732  3.56094 115 93 70
0.0449052  -1.54943   3.31661 107 79 57
 1.78284 -1.01035  10.4776 80 75 72
-0.629415  -1.32129   3.27625 114 89 69
-0.464303  -1.12742   3.16551 108 78 52
-0.377595  -1.04975   3.14948 118 90 69
-0.260566  -1.25663   3.22324 102 75 54
 -1.23995 -0.802924   3.41066 107 79 57
 1.70556 -1.14034  10.5613 63 55 44
-0.0925255  -0.122272    3.78608 108 88 63
-0.824977  -2.04224   2.91079 136 111 91
-0.0974466  -0.777119    3.37692 89 73 60
-0.490785  -1.40563   3.26761 112 96 81
-0.486432 -0.561819   3.36068 58 44 33
-0.510182   -1.5186    3.2658 90 63 44
-0.621388 -0.924786   3.17356 89 62 41
-0.103227 -0.207544    3.8259 125 99 76
-0.843239 -0.421416   3.49282 56 37 23
-0.800761 -0.792522   3.27531 91 73 59
-0.0919228  -0.182174    3.82692 116 88 67
-0.101896  -1.21707   3.29892 126 100 77
 -1.22896 -0.695707   3.42256 57 38 23
-0.18851 -1.14347  3.22269 117 99 75
 -1.11289 -0.311651   3.54365 92 89 84
-1.11981 -1.15637  3.51312 98 73 53
-0.503258  -1.67626   3.27758 115 92 74
-0.383721  -1.26093   3.20537 100 70 44
-0.903826 -0.705603   3.41989 88 71 61
0.152056 -1.50071  3.46492 92 69 51
-0.549879  -1.77257    3.3297 95 76 62
 -0.96074 -0.131741   3.36452 116 90 65
-0.577894 -0.403328   3.49185 67 49 35
-0.78364 -2.10802  2.94914 110 92 80
-6.51695 -3.86203  6.99485 143 140 135
-0.535213  -2.10717   3.10169 131 103 81
-0.310333   -1.0454   3.15791 94 66 42
-0.596686     -1.97   3.08972 109 86 68
0.129682 -1.52277  3.41856 108 80 58
-0.466532 -0.918205   3.14271 79 52 31
-0.0727421  -0.984251    3.28874 103 77 54
-1.08538 -2.21028  2.75631 98 70 46
-0.562576 -0.239327   3.41299 77 51 34
-1.05499 -2.30947  2.76571 118 99 84
-0.523864 -0.826955   3.16195 56 36 25
-0.817605  -1.15439   3.28189 105 78 57
 -1.09683 -0.798333   3.47756 110 100 91
 -0.23292 -0.948099   3.18796 85 58 37
 -1.14107 -0.612797     3.499 76 63 54
-0.441409 -0.606635   3.31866 62 48 37
 -1.56867 -0.896861   3.57504 135 111 87
-5.39832  -3.8961  6.60862 115 98 78
-0.714098 -0.789594   3.23059 90 69 48
-0.999284  -2.39134   2.75043 90 71 54
-0.528666  -1.10996   3.15863 113 83 57
-0.671247  -2.07365   3.04172 126 117 110
-0.181981  -1.76063   3.24677 117 93 69
  -1.0448 -0.513809   3.57628 78 70 67
-0.486653  -1.96661   3.18961 136 114 91
-5.26987 -1.61888  8.18953 181 180 178
 -1.0314 -2.29773   2.7654 103 84 69
0.0767217   -1.5405   3.32216 111 83 61
-0.421579 -0.336171   3.79939 77 66 60
-0.778879 -0.211437   3.45178 106 85 68
 -1.22028 -0.449214    3.5007 70 54 41
-5.14782  -1.6527  9.80441 196 192 191
-1.03649 -2.33455   2.7631 125 106 91
-0.853563 -0.620829   3.43155 70 54 41
-0.726327 -0.849159   3.22184 81 62 47
-0.0450383   -1.89738    3.32857 104 83 64
-0.182366   -0.1967   3.76817 97 74 56
-0.66011  -1.9388   3.0744 52 35 27
   1.4952 -0.318356   10.3347 46 35 13
  1.67803 -0.629392   10.6181 29 24 18
-0.38862 -1.68732  3.22667 101 76 56
-0.305775 -0.292938   3.86426 70 57 49
 -1.35204 -0.630941    3.4333 60 41 26
-0.31437 -1.88549  3.26845 99 77 56
 -1.19287 -0.740332   3.43308 89 73 60
-0.450221 -0.230166   3.38805 100 75 55
-0.247665 -0.665617   3.33495 50 35 28
-0.301367 -0.800949   3.20926 79 56 38
-0.00104755    -1.67534     3.31173 130 96 69
  0.765481 -0.0113505      7.693 196 192 189
-0.383118  -1.31446   3.22446 114 100 87
-1.21846   -1.116  3.56645 125 100 78
   1.5773 -0.746405   10.4803 31 22 13
-0.698241  -1.09763   3.22355 126 108 94
0.193145 -1.70797  3.57913 134 113 96
 -1.02687 -0.444721   3.60197 85 81 72
-0.355951  -0.65131   3.29977 49 35 24
-0.928999  -0.15583   3.39364 83 56 37
-5.27816 -2.11101  8.18957 175 174 170
-0.765551  -1.32936   3.31984 114 84 60
  1.46388 -0.650529   10.4128 45 23 9
-0.568255 -0.793468   3.17139 67 44 30
-0.845687  -0.40016   3.48503 58 40 28
-0.560243 -0.277681   3.46211 113 103 94
-1.18103 -0.39529  3.54728 78 62 49
 -1.16994 -0.403948   3.51171 78 62 49
-0.378576 -0.212072   3.40616 112 86 69
-0.547887  -1.81389   3.32385 137 127 118
-0.855898  -1.07372   3.28651 106 84 63
-0.0690741   -1.28231    3.35731 135 122 114
-0.575119  -1.69715   3.34803 85 64 43
0.120128 -1.39032  3.48962 77 68 61
-0.651723 -0.427254    3.4593 86 68 54
 -1.04653 -0.324019   3.57914 126 118 115
-0.401908  -1.97532   3.25138 106 85 66
0.255448 -1.54139  3.57363 99 71 50
  1.44588 -0.622877   10.4306 49 30 15
-0.672459 -0.174927   3.37603 110 82 60
 -1.14532 -0.663796    3.4745 70 56 47
 -1.14479 -0.664446   3.47461 70 56 47
 -0.81908 -0.335365   3.49619 75 61 48
-0.873625  -1.10463   3.31023 112 84 62
-0.168261  -1.28074   3.27458 96 79 61
-0.408416  -1.09443   3.15714 101 75 50
-0.513384 -0.667723   3.26246 76 61 54
 -1.1959 -1.20569  3.57472 130 100 74
-0.492151  -1.83662   3.27345 100 90 81
 -0.32372 -0.354165   3.90981 72 58 47
-0.036223  -1.91788   3.33308 132 110 89
-0.250635 -0.824891   3.22065 119 101 91
-0.0922888   -1.39555    3.26772 84 63 46
 -1.14628 -0.368698   3.54863 74 55 40
-0.0773635   -1.79771    3.32207 143 118 98
-0.553358  -1.90873   3.17491 66 48 34
-0.625359  -1.38776   3.30668 103 78 56
-1.23805 -1.49694  3.92315 122 104 84
-0.774605  -1.99735   2.93796 111 83 59
1.57934 -0.6388 10.5096 30 20 10
  -1.63787 -0.0181076    3.71751 176 166 164
-0.595253  -1.90734   3.14251 68 52 39
-0.248134  -1.05983   3.18479 99 75 51
-0.884393  -2.16325   2.86963 127 108 91
-0.494385  -1.15713    3.1754 134 104 78
 -0.5575 -1.76517  3.34268 92 70 59
-0.446266 -0.802213   3.17589 84 66 52
-1.15859 -1.16177  3.52899 109 90 73
-0.875559 -0.256934   3.49548 94 83 77
 -1.16346 -0.502544   3.51878 61 48 39
-0.0281403   -1.87542    3.34004 142 124 110
 -1.15792 -0.646849   3.47583 73 60 51
-0.171885  -1.79012   3.26248 103 76 57
-0.539544 -0.311911   3.50089 68 58 46
-1.18151  -1.1382  3.54644 123 105 85
 -1.15704 -0.606747    3.4889 55 43 31
 -0.679707 -0.0994103    3.34865 105 81 57
 -1.28424 -0.436276   3.49836 64 47 31
-0.56092 -1.25594  3.21922 102 74 50
-0.0316604   -1.12256    3.32371 109 81 59
0.0180453  -1.64462   3.31391 117 87 63
-0.688503 -0.767687   3.22021 83 61 47
  1.64999 -0.870212   10.3232 99 80 50
-0.669114  -1.23978   3.24381 108 83 61
-1.16653  -2.2978  2.75107 118 94 66
-0.948487  -2.10278   2.82641 117 94 76
-0.838552 -0.513623   3.46142 62 43 29
-0.051837   -1.1301    3.3052 89 61 40
-0.341577 -0.667965   3.28355 67 54 45
-0.332519 -0.648621   3.30891 73 59 48
-0.930428 -0.685741    3.4461 95 70 50
-0.630016 -0.763727   3.20579 65 46 29
-0.0457217  -0.767254    3.44534 92 74 62
 -1.46343 -0.895101   3.47509 120 92 68
-0.838734  -1.08054   3.27417 91 66 44
 -1.2357 -0.63305  3.44244 74 56 42
-0.449766  -0.73742    3.2054 78 59 44
-0.584229  -1.51035   3.33568 95 74 55
-0.103694  -1.19374   3.28724 100 69 48
-0.936987 -0.242368   3.44667 93 72 55
-0.494088  -1.90698   3.21412 59 45 34
-0.213107  -1.30813   3.25766 120 111 102
-0.848447 -0.987011   3.28252 106 78 56
-0.740635  -2.16064   2.96063 121 111 99
-0.0686104   -1.14957    3.30032 92 64 43
-0.0661252   -1.14922    3.29572 92 64 43
-0.83342 -2.02833  2.90019 116 86 62
-4.29443 -1.92738  9.15812 191 187 184
-0.665046  -2.00411   3.02926 139 109 83
-0.357936 -0.612371   3.34995 58 41 31
  -1.1833 -0.750614   3.44369 78 55 41
-1.14026 -1.28984   3.5849 138 117 100
-0.240697  -1.12966   3.19148 93 65 44
-0.362738 -0.792371   3.19773 83 62 45
-0.296544 -0.299067   3.88101 93 83 74
-0.959316 -0.464322   3.58052 81 76 72
-0.799051 -0.896597   3.25237 102 74 52
0.0188079  -1.05303   3.37176 93 73 48
-0.221579  -1.19761   3.22745 106 82 58
-0.285998 -0.217408   3.77637 66 52 43
-0.588273 -0.456481    3.4864 82 71 65
 -1.23566 -0.887955   3.42708 96 71 51
-0.272344   -1.0439   3.17246 99 69 45
-0.711586 -0.769646   3.23542 69 50 33
-5.75385 -3.90093  6.46667 135 118 102
-0.418193  -1.32409   3.23065 107 86 65
 -0.28482 -0.940981    3.1686 95 67 46
0.212691 -1.46633  3.52403 103 75 53
-0.693114  -2.00808   3.00424 128 102 79
-0.142028  -1.59128    3.2178 108 86 62
-0.359122  -1.21132   3.18737 98 78 54
-0.358501  -1.21092   3.18736 98 78 54
-0.42477 -1.86189  3.25476 124 112 100
-0.737116  -2.25198   2.87133 97 75 61
-0.484712 -0.189102    3.3314 96 66 40
-0.711116  -2.04021   3.00672 138 119 104
-0.286376  -1.53686    3.1867 107 79 58
   -5.3593 -0.0301966     7.5896 168 165 160
 -1.14052 -0.155943   3.36267 110 80 54
-0.780838 -0.463347   3.44945 58 36 22
-0.782653  -0.45964   3.45854 58 36 22
-0.675966  -0.50065   3.44296 75 59 46
 -1.44012 -0.925746   3.46177 122 95 68
-0.815712 -0.258478   3.48108 122 103 89
-0.261209  -1.00732     3.174 111 81 57
 1.46318 -1.02282  10.4827 73 57 32
-0.413535 -0.913371   3.14994 100 70 46
  -1.0888 -0.177857   3.37128 116 88 64
-0.403739  -1.68544   3.22949 123 95 71
 -1.12567 -0.598235   3.50795 61 48 39
-0.662474 -0.183371   3.38082 89 61 39
-0.426999  -1.96023   3.23346 127 110 94
0.229669  -1.5347  3.54452 88 62 45
  1.19836 -0.364424   10.5917 40 31 16
-0.139799  -1.21581   3.27199 90 64 41
-0.506542 -0.287709   3.50686 92 85 79
0.00108933   -1.76369    3.35706 127 106 85
-0.848272 -0.278824    3.4945 109 97 85
-0.153435  -1.25069   3.27678 113 90 72
-0.971024 -0.295244    3.5503 83 73 64
-0.143136 -0.180244   3.78804 91 65 42
 -1.33051 -0.350032   3.53136 70 54 41
-0.287166  -1.66572   3.20655 117 87 61
-0.389755  -1.61255    3.2113 110 85 65
-0.333234  -1.95517   3.28225 135 117 97
-0.0908642   -1.00596     3.2628 92 66 43
-0.620196  -1.36059   3.28608 116 88 64
-0.911939 -0.128922   3.38518 70 51 34
-1.35893 -0.90159  3.41681 115 87 63
 -1.08705 -0.282405   3.49795 66 53 44
-0.753914 -0.157777   3.41109 104 73 53
-0.531152 -0.719507   3.21582 63 47 34
-0.0157955  -0.948879    3.35142 71 54 38
-0.232994  -1.22953   3.23142 99 71 49
-0.100474  -1.23128   3.29679 98 74 50
0.0266537  -1.47437   3.29519 93 68 46
-1.14729 -1.02856  3.50087 102 83 66
-0.694403 -0.869994    3.1838 102 74 52
-0.251716  -1.99065    3.3042 144 122 99
-0.361595  -1.15197    3.1697 96 69 48
-0.119278   -1.6225   3.23247 108 81 60
-0.771678 -0.254674   3.46122 102 83 66
-0.971422 -0.202147   3.39051 95 69 44
-0.259044 -0.691535   3.30347 66 48 36
-0.305151  -1.91217   3.26977 120 96 70
-0.815957 -0.401625   3.48437 64 45 30
-0.432096 -0.707314   3.22405 70 51 36
-0.0838774   -1.19897     3.2956 98 67 46
-0.360412 -0.591687   3.36067 45 28 18
  1.14631 -0.981908   10.5658 68 53 30
-0.897698  -2.06709   2.86044 119 91 69
-0.653775 -0.351951   3.46876 63 44 29
 -0.85253 -0.331262   3.51365 94 75 60
-0.238931 -0.677462   3.33522 73 53 46
-0.344289  -1.41476   3.22012 101 78 60
-0.0221889    -1.4671    3.26964 85 58 37
 -1.35072 -0.944908     3.434 121 91 65
-0.0243551   -1.00362    3.32638 111 83 62
 -1.32732 -0.952517   3.44223 106 76 50
-1.22739 -1.17604  3.59037 105 81 57
-1.16915 -2.32711  2.73217 117 91 68
-0.954544 -0.234098   3.43623 71 48 30
-0.319338 -0.195147   3.74536 72 59 50
 -1.14552 -0.125134    3.3633 83 57 34
-0.652066 -0.413527   3.46524 59 41 27
0.226108 -1.43904  3.53272 85 60 40
-0.326804  -1.43614   3.21284 87 64 50
 1.31466 -0.50396  10.5504 46 37 22
-0.269271  -1.21602   3.20786 97 69 47
 -1.0698 -2.22384  2.76103 108 83 63
-4.78649 -3.89384   8.0596 81 68 60
-0.286365  -1.38768   3.22409 94 71 53
 -1.08296 -0.262066    3.4383 93 72 55
 -1.22272 -0.629682   3.44847 60 42 28
-0.0930553   -1.42341    3.23526 84 59 39
 -0.42773 -0.726788   3.21235 61 40 23
-0.893652 -0.139234   3.41243 77 56 35
-1.01839 -2.36558  2.76536 101 82 68
-0.459889 -0.213005   3.36176 84 56 34
 -1.01221 -0.856598   3.43854 84 67 57
  -1.306 -0.40585   3.5095 50 34 19
-0.204112   -1.1999   3.22562 90 65 45
-0.703336 -0.616416   3.35908 72 63 56
 -1.18895 -0.847209   3.45134 106 79 58
-1.41044 -0.95698  3.45946 107 75 50
 -1.17602 -0.172637   3.39106 100 68 43
-0.113986  -1.81284    3.3108 136 123 107
-0.903332  -1.39683   3.47309 120 98 74
 -1.34472 -0.565837   3.45123 54 36 22
-0.63465 -1.45142  3.34303 117 101 86
    -1.22 -0.597404   3.46826 68 50 36
 -1.36676 -0.357034   3.53291 51 33 19
-0.408174 -0.824945   3.16283 65 47 33
-0.765888  -1.23194    3.2885 117 93 69
  -1.0701 -0.508635   3.54962 68 54 45
-1.10567 -1.20467  3.52436 106 84 61
-0.113092 -0.954612   3.26806 86 63 45
-0.475343  -1.41757   3.26015 122 106 93
-0.643158 -0.246921   3.43137 86 65 48
 -1.06094 -0.170343   3.36177 118 88 62
-0.907978 -0.911315   3.32591 88 63 43
-0.504258  -1.19769   3.19048 117 87 61
-0.378669  -1.76994   3.23438 91 71 47
-0.892798 -0.669943   3.43832 96 80 67
0.0610287  -1.54964   3.32508 97 69 47
-1.17184 -1.52672  3.93336 106 84 63
-0.873049 -0.580507    3.4553 60 39 22
-0.261676  -1.46692   3.20235 69 47 33
-0.207666  -1.05314   3.20375 100 87 71
-0.256875 -0.853504   3.20593 91 83 70
-0.593477  -1.41142   3.30759 137 114 100
-0.843991  -0.30385   3.51221 83 66 50
  -1.4453 -0.445842   3.52851 76 57 42
-1.14606 -1.04476  3.50205 112 90 69
-1.01981 -0.51349  3.58443 84 79 75
-0.43138 -1.08984  3.15519 99 73 48
0.0645108  -1.49647   3.32859 89 62 45
-0.345352  -1.77199   3.23553 119 91 70
-0.957831 -0.300497   3.55656 78 74 71
-0.505297  -1.69651   3.26845 91 64 43
-0.463206  -1.89882   3.23937 70 51 44
-0.158833  -1.27419   3.27751 120 103 85
-0.638575  -1.26474   3.23858 133 115 101
 -1.04286 -0.511069   3.55763 79 71 68
-0.0802937  -0.944151    3.28542 92 69 51
-0.973875  -1.04693   3.38125 110 91 74
-0.522164  -1.87798    3.2364 53 39 28
  1.63709 -0.984422   10.2738 42 26 10
-0.29434 -1.86195   3.2529 109 88 69
-1.14423 -1.25559  3.57301 132 105 78
-0.494825  -1.42764   3.26783 124 107 91
-0.290581 -0.267098   3.83611 69 54 49
-1.07627 -1.28135  3.54785 147 135 121
-0.400307  -1.61943   3.21203 93 67 44
-0.145645  -1.67321   3.23698 127 97 73
-0.29098 -1.30043  3.23477 116 94 70
-0.486464   -1.3063   3.23657 100 70 46
-0.836278   -2.2274   2.88508 109 96 87
-0.0658096     -1.671    3.27017 121 93 69
 -1.16707 -0.406658   3.53535 61 44 34
-0.798296 -0.289747   3.48013 101 85 72
-0.488089  -2.07855   3.16262 114 88 65
-0.110683  -1.22764    3.2942 105 79 56
-0.182966  -1.37368   3.24973 68 50 36
-0.429477  -1.33468   3.23443 119 91 67
-0.93971 -2.26932  2.82072 103 85 73
-0.661826 -0.131449    3.3556 81 55 32
-0.422417 -0.170699   3.34575 113 85 61
-0.894019  -2.20384   2.86449 103 84 70
-1.00711 -1.07118  3.40184 115 90 68
-1.21147 -1.08568  3.56251 128 107 90
-1.09316 -0.21258  3.38161 112 84 62
   -1.319 -0.368906   3.52155 61 45 32
-0.705761 -0.214421   3.41986 101 78 60
-0.997795  -1.30384   3.47454 106 74 53
-0.367213  -1.72654   3.22855 109 78 58
  -1.0788 -0.274286   3.47336 70 54 41
-0.689491 -0.170088   3.38265 104 76 52
 -1.45393 -0.724908   3.45288 106 78 56
-0.241199  -1.54122   3.18879 103 75 51
-0.702991  -1.29742    3.2801 105 79 54
-0.660848  -2.11211   3.02541 123 113 103
-0.739404 -0.110742   3.38414 80 56 32
-0.848691   -2.3149   2.80059 82 68 57
-4.12033 -3.89913  8.09083 117 98 84
 -1.19478 -0.450805    3.5203 55 41 32
-0.560871 -0.810432   3.16608 62 43 28
-0.658567 -0.301466   3.45357 81 60 43
-0.886612 -0.305557   3.52867 101 88 80
-0.932389 -0.129607   3.37057 99 72 51
-5.37482 -3.89627  6.72598 132 113 99
-0.899507 -0.239388   3.46891 84 61 43
 -1.18181 -0.537478   3.48839 75 62 53
-0.0600275   -1.29766    3.35774 126 119 113
-0.494939   -1.9237   3.19967 75 59 46
-0.453773  -1.79085   3.26531 116 97 83
 -0.904207 -0.0982988    3.37182 70 47 29
 -1.36989 -0.923886   3.42603 110 80 54
-0.630611 -0.190367   3.36719 107 79 57
-0.321757   -1.8434   3.25306 124 98 75
   -1.172 -0.240283   3.43205 98 70 48
-1.00661 -2.37523  2.75423 109 90 76
-0.797695 -0.372653   3.47945 86 69 59
 -1.07862 -0.821949   3.47761 104 87 77
-0.666152  -1.33247   3.28401 115 83 60
-0.257213  -1.22717   3.21854 98 72 49
-0.794334  -2.08043   2.93903 123 103 92
-0.602909 -0.301959   3.46375 90 74 61
-0.289122   -1.8396   3.25668 129 111 97
-4.60742 -3.90304  7.60978 111 93 81
-0.700107 -0.787339   3.22648 67 46 29
-5.46728 -3.90613  6.73936 129 110 96
-0.900778  -2.41113     2.732 123 97 72
-0.874268  -2.19215   2.86828 102 86 71
  0.667206 -0.0113958    4.05735 211 210 206
-0.367217  -1.71278    3.2216 115 87 65
-0.482452   -1.9207   3.21652 80 64 51
-0.0391487   -1.14658    3.32129 91 67 43
-1.06246 -1.06484  3.43891 101 79 58
-0.365266  -1.89102   3.25743 132 111 92
-0.265293  -1.32391   3.24217 126 108 94
-1.02474   -2.213  2.78112 93 70 52
-0.781349 -0.481638   3.44367 64 43 26
-0.465625  -1.65196   3.24949 93 64 46
-0.883462  -0.33693   3.53249 88 75 67
 -1.19037 -0.478448   3.50591 57 43 34
 -2.08569 -0.021129   3.33553 202 201 197
-0.265797  -0.24286   3.79941 66 52 43
 -1.35324 -0.496327   3.47499 66 47 32
-0.134985  -1.14059   3.24059 109 81 59
-0.696173 -0.223277   3.42169 85 62 44
-0.0160795   -1.03456    3.33119 112 82 58
-0.483002   -1.8203   3.28056 113 103 94
-0.161985 -0.826148   3.27591 104 73 55
-0.858088 -0.528161   3.48045 73 54 39
-1.15923 -1.06302  3.51306 111 88 70
-0.212254  -1.38598   3.22672 86 69 61
-0.429426  -1.22476   3.18267 116 85 57
-0.255193  -1.34256   3.24737 121 111 101
-0.185539  -1.00204   3.21457 114 91 77
-0.490139  -1.22544   3.19821 102 72 48
-1.00819 -2.13292  2.79312 91 63 39
-0.638533  -1.51065   3.38908 132 115 99
-0.72357 -1.15576  3.24666 114 87 66
-0.220952  -1.32945   3.25295 112 99 91
-0.338428 -0.327301   3.85241 73 61 49
-0.735662 -0.707864   3.27791 55 39 26
-0.441422 -0.209702    3.3584 110 79 51
  -1.1128 -0.451741   3.55545 78 65 57
-1.05642 -2.24467  2.76803 112 91 72
 -1.04343 -0.305572   3.56194 87 78 69
-1.38928  -1.0508  3.55882 125 95 71
-0.659528 -0.168167   3.36788 85 57 35
-0.657945  -0.82656   3.19449 71 50 33
-0.503431  -0.30488   3.54652 71 61 52
-0.635382  -1.32461   3.28451 112 87 67
-0.389149  -1.89222   3.25697 137 122 115
-0.345941  -1.18412   3.17086 106 76 52
-0.769139   -1.1998   3.28502 110 88 67
-0.309619  -1.49411   3.19637 93 67 50
-0.853488  -2.15143   2.89506 114 97 81
-0.111654  -1.26547   3.31495 132 119 110
-1.15804 -1.24865  3.57257 123 90 59
-0.904608  -2.37649   2.76491 86 70 57
0.129071 -1.73716  3.51239 135 127 116
-0.511718 -0.310306   3.52963 83 73 64
-0.177819 -0.159153   3.73684 86 59 38
-0.270881  -1.11923   3.18655 91 63 41
-0.273798 -0.226894   3.78999 51 37 26
-0.804619  -2.10853   2.93246 122 106 91
-0.454521  -1.58114   3.23007 104 76 55
 -1.21454 -0.913731    3.4483 75 54 37
-0.727133 -0.145825   3.38842 87 59 38
-0.313843  -1.85297   3.25865 111 89 68
 -1.02977 -0.528712   3.57993 73 68 64
-0.202924  -1.42633   3.20562 72 53 38
 -1.18937 -0.334459   3.52318 94 77 67
-0.42759 -1.23672  3.19789 117 86 58
-1.10386 -2.28819  2.74906 93 65 44
-0.270842 -0.208297   3.75818 53 36 26
 1.14739 -1.04465  10.4576 72 57 28
 -1.22251 -0.436522   3.49536 53 37 24
-0.294653 -0.325347   3.90887 81 69 57
-0.291002 -0.197459   3.74948 63 49 40
-0.225166 -0.706684   3.31866 66 48 36
-0.575701 -0.248072   3.41242 78 57 40
-0.211636 -0.202145   3.75962 71 52 35
-0.717528 -0.745324    3.2564 63 44 30
-0.103144  -1.63884   3.23585 94 72 51
-0.671036 -0.848211   3.18903 73 50 32
-0.696051 -0.177171   3.38712 94 66 42
-0.538557   -1.1774    3.1929 111 79 54
-0.348915 -0.569817   3.38202 34 21 13
-0.175641 -0.653357   3.41269 52 36 23
-0.164231 -0.792578   3.28891 81 58 44
-0.321606  -1.24489   3.20668 98 70 46
-6.20456 -3.89876  6.85019 84 73 67
-0.179961 -0.730072   3.32247 67 49 35
-0.627997  -1.26486   3.23672 131 112 95
-0.0336209   -1.40723    3.30203 77 56 39
-0.507525  -1.88655    3.2114 66 50 37
-0.686408  -2.05927   3.02883 140 127 118
  1.47727 -0.396289   10.3579 44 35 18
-0.059875 -0.747751   3.44554 93 79 68
 -0.0211536 -0.00525756     3.67449 189 185 182
-0.424625   -1.2739    3.2079 107 75 50
-0.471833  -1.74119   3.26685 98 76 53
-0.0359302   -1.63437    3.27768 115 85 61
-0.122983  -1.21378   3.27814 96 70 47
-0.790243 -0.837341   3.26857 91 64 43
-0.12555 -1.80444  3.30145 123 104 87
 -1.37688 -0.379477   3.52619 48 30 16
-0.243267 -0.175658   3.73138 71 52 37
-0.705251 -0.376198   3.46153 65 47 33
-0.976416  -1.30992   3.47131 116 85 64
-0.922879   -2.0901   2.84261 103 82 61
 -1.25623 -0.809878   3.40748 86 59 38
-0.686397  -1.32146   3.29952 112 82 58
-0.0348174   -0.76813    3.45567 75 58 42
 -1.27755 -0.515454   3.47545 66 45 28
-0.598926  -1.06979    3.1798 115 85 61
-0.485033  -1.37549   3.25492 127 106 87
-0.828208  -2.11658   2.91582 117 99 85
-0.492342 -0.224995   3.38285 96 69 48
0.133727 -1.69678   3.5253 124 102 81
-0.153259   -1.4443   3.21314 88 63 43
-0.670119  -1.48895   3.39004 115 101 88
  -1.46111 -0.0156391    3.52825 173 170 165
 -1.24382 -0.703423   3.41807 71 50 33
-0.710905 -0.340214   3.46551 75 57 43
-0.322975   -1.4589    3.2067 88 69 55
-0.957511  -2.11162   2.82329 103 80 64
-0.327802  -1.28033   3.21977 104 76 52
-0.109347   -1.6493   3.24302 103 82 61
-0.417781 -0.378699   3.80087 63 54 49
-0.0123832   -1.44328    3.27269 83 56 35
 -0.984357 -0.0953132    3.34718 84 56 44
-0.479013  -2.07252   3.17081 119 93 70
-0.577233  -0.59782    3.3314 51 41 32
-0.0813998  -0.163221    3.80452 109 81 60
-0.491334  -1.38492   3.25897 115 98 82
-0.731428  -2.24528   2.88594 81 59 45
 -0.39262 -0.986791   3.14284 113 97 84
-0.58577 -1.19748  3.20839 112 80 55
0.067119 -1.46316  3.33248 88 61 44
-0.10234 -1.61951   3.2357 105 75 51
-0.256111  -1.64893   3.19696 111 83 59
 -1.19498 -0.880876   3.42921 93 68 48
-0.814952  -1.30972   3.33812 113 85 61
-0.537669  -1.09342   3.15724 111 81 55
-1.06883 -2.34614  2.75488 111 89 75
-0.723762  -2.16534   2.96329 99 89 79
-0.307509  -1.73968   3.23842 110 84 67
  1.25615 -0.284249   10.6014 26 17 2
-0.0947782   -1.16519    3.28203 104 76 52
-1.05852 -2.23379  2.77499 99 74 54
-0.7922 -2.1958 2.91935 107 98 89
-0.195117 -0.207926   3.76837 70 49 30
-0.551103  -1.14942   3.18233 110 78 53
-0.625049 -0.800961   3.18895 78 57 40
-0.490838  -1.51014   3.25682 97 69 47
-0.446873  -1.77159   3.26784 117 95 81
-1.07686 -0.98294  3.45089 100 69 48
 -1.09263 -0.932238   3.45606 99 77 63
-0.0556873  -0.817104    3.39294 94 73 56
-0.759244 -0.449191   3.44928 58 39 24
-0.90101 -2.12382  2.86784 119 100 85
-0.537652 -0.180093   3.33903 109 81 57
-1.00942 -1.24968  3.47223 114 88 65
-0.678264 -0.236074   3.42568 91 70 49
-0.271535   -1.8598   3.26754 127 109 97
-0.378582  -1.13081   3.16333 116 98 76
-0.657592  -1.92632   3.08415 65 47 33
-0.770593 -0.241378   3.45839 92 73 56
 -1.05848 -0.529503   3.56113 57 43 34
-0.148387   -1.7783   3.26859 113 92 73
-0.901053 -0.161436    3.4177 103 82 65
 -1.09007 -0.192017   3.37993 116 86 60
 -1.14777 -0.684071   3.47179 60 47 38
-0.165538 -0.139807   3.73173 97 71 48
0.0392711  -1.87067   3.37994 120 95 73
-0.864842  -2.37853   2.76695 105 84 67
-0.529635  -1.29931   3.23744 108 78 54
-0.834093  -2.22993   2.87204 110 98 86
-0.533473 -0.360082   3.53517 60 43 35
 -1.27845 -0.385322    3.5071 64 48 33
-0.852552 -0.966182   3.29147 100 73 52
-0.162203  -1.92952    3.2982 111 94 76
 -0.71347 -0.138469   3.38512 94 66 45
 -1.47344 -0.401431   3.58251 58 39 24
-0.110014  -1.68172   3.24632 116 86 62
 -1.21528 -0.370216   3.51242 69 52 36
-0.867153  -0.17116   3.43924 90 67 49
-0.281997 -0.989283   3.16664 94 67 46
 -1.30446 -0.522551   3.46435 71 50 33
-0.125993 -0.848711   3.29244 106 81 61
-0.0927751   -1.79771    3.31708 127 109 95
-0.952438  -2.26821   2.80894 111 93 81
-0.838067  -2.10361   2.91686 115 99 84
  -5.137 -3.92578  7.96882 81 71 62
-0.993258 -0.213242   3.40003 97 70 49
-0.121128  -1.03517   3.25196 105 84 67
-5.52571 -3.89592   6.6297 126 104 90
-0.395738 -0.785841    3.1925 67 46 29
-0.485491  -2.02818   3.17974 101 84 68
 -1.32271 -0.826258   3.40444 103 75 53
-0.15698 -1.49457  3.21244 106 79 58
 -1.18621 -0.192892   3.41489 111 77 50
  -1.3517 -0.349293   3.53808 54 38 25
 -1.28772 -0.574136   3.45121 82 66 53
-0.314563  -1.61839   3.19549 122 98 70
-0.274043  -1.20054   3.20522 101 73 51
-0.708518 -0.258678    3.4383 101 84 68
-0.744139   -2.1304   2.97215 109 99 87
-0.347887  -1.19952   3.17895 91 67 43
-1.16982 -2.36618  2.72945 120 89 71
-0.640791 -0.307547   3.46437 91 72 55
-0.00440404   -0.964513     3.36555 79 56 38
-0.235581  -1.43574   3.20832 68 49 34
 -1.06626 -0.663268   3.52044 91 78 70
 -1.27623 -0.851967    3.4083 93 66 45
-0.187759  -1.19939     3.237 103 78 58
-0.320363  -1.66007   3.21623 116 88 66
-1.03019 -2.32099  2.77244 107 88 73
-5.12131 -3.92763  8.07931 78 67 61
-0.214067   -0.7633   3.27832 73 51 37
-0.229529 -0.163146   3.72572 65 46 31
-0.469927 -0.261622   3.45331 75 56 41
-0.34469  -1.9594  3.27237 123 106 90
-0.277472   -1.5217   3.19738 102 74 52
-0.184032  -1.79605   3.25886 124 96 74
-0.426288 -0.897168   3.14693 85 58 37
0.020362  -1.6307   3.3095 103 73 49
-0.927926 -0.903883   3.35373 90 67 49
-0.84114  -2.3571  2.76283 103 77 62
-0.824291  -2.20845   2.88538 114 101 93
-0.268615 -0.186627   3.73795 55 38 28
-0.583939  -1.42208   3.31265 128 109 95
-0.807059  -2.26243    2.8546 78 65 57
 -1.02876 -0.964178   3.42132 90 71 56
 -1.11661 -0.814779   3.46279 104 87 79
-0.398732 -0.163638   3.35811 109 81 57
-0.673013 -0.314322   3.45995 85 62 46
-0.99201 -2.13766  2.80098 88 63 41
-0.0385949   -1.64829    3.28114 108 78 54
-1.04977 -2.16345  2.76193 103 73 49
-0.229118 -0.225048   3.79627 63 47 34
-0.446915  -1.59892    3.2199 102 74 52
-0.357797  -1.78021   3.22671 107 83 57
 -1.40772 -0.783742   3.41892 86 59 38
-0.220446  -1.62829   3.20973 115 88 61
-0.247792  -1.10174   3.19415 99 71 49
-0.768509  -2.13635   2.95541 115 101 88
  -1.49096 -0.0194494    3.56199 177 174 169
-0.401839  -1.44883   3.23312 89 64 42
-0.240819 -0.218094    3.7776 53 40 24
-0.609663  -0.84712   3.15877 85 58 39
-0.368149  -1.02572   3.14735 92 63 45
-0.198054  -1.52373   3.18974 103 79 53
-0.497321  -1.57155   3.25775 90 69 50
-0.17632 -1.48163  3.20398 96 69 48
-0.696045  -2.21712   2.91987 89 63 46
-0.91428 -2.35301  2.77982 102 93 86
  -1.2122 -0.637223   3.45875 66 48 34
-0.885442  -2.29925   2.82649 109 96 87
-0.987477  -1.27835   3.45942 111 83 59
-0.295555 -0.910413    3.1688 89 63 40
-0.259501 -0.166698   3.73175 61 43 29
-0.295521 -0.612882    3.3586 62 46 31
-0.542418  -0.84363   3.15171 73 54 37
-0.693996    -2.071    3.0208 124 114 105
-0.114439  -1.44639   3.23247 94 64 40
-0.217172  -1.13489   3.19925 98 70 48
-0.210781  -1.76716   3.24118 122 90 69
-0.708035 -0.488676   3.44271 77 56 39
-0.556834 -0.396509   3.51935 65 49 36
-0.598332 -0.278521   3.45503 101 88 79
-0.0638068  -0.933717    3.31784 91 70 53
0.242569 -1.48039  3.54395 104 76 54
-0.505915  -0.25807   3.44397 71 55 42
-0.703726  -2.05043   3.00479 125 113 101
 -1.34995 -0.698918   3.41644 77 51 34
-0.339473 -0.374167   3.86941 58 44 35
-1.03584 -1.01985  3.42048 98 72 49
-0.729022 -0.798457   3.24678 71 50 31
 -1.09758 -0.249119   3.42525 103 75 53
-0.252786  -0.13253   3.71349 67 48 33
 -0.64125 -0.869623   3.17537 88 61 40
-0.976578  -2.26843   2.79542 107 88 74
-0.30854 -1.43169  3.21488 83 64 49
-0.938282  -2.22167   2.83234 105 86 71
  0.935886 -0.0102652    4.83777 200 199 195
-0.859938  -2.30194   2.81535 96 86 77
-0.424787  -1.45592    3.2437 94 69 47
-0.741938  -1.37187   3.33977 107 77 53
-0.587617 -0.715234   3.21431 55 39 26
-0.0589524   -1.58729    3.25939 105 75 51
-0.621463  -1.45924   3.34829 127 115 103
-0.346108 -0.823512   3.18461 75 56 39
0.00472513   -1.56885    3.27642 101 71 47
-1.14635 -2.30009  2.74549 107 79 57
-0.573794 -0.850545   3.15545 81 63 41
-0.499325  -1.46821   3.27168 98 75 57
-0.838224  -2.15627   2.90207 108 91 81
-0.0339508  -0.996152    3.33003 98 71 50
-0.33491 -1.22758  3.19705 100 72 48
-0.740706  -2.06107   2.98842 126 113 105
-0.087388  -1.18528   3.28848 105 74 53
-0.775035  -2.24193   2.87874 82 69 60
 -1.0733 -2.24368  2.76673 103 77 60
-0.317453  -1.58185   3.18048 101 73 52
-0.119927 -0.123298   3.76583 108 78 54
  0.599735 -0.0153897    4.19976 203 202 198
-1.12793 -2.26754  2.75082 107 77 53
-0.841863  -2.28276   2.84063 96 83 74
-0.690614  -2.20821   2.93297 84 65 48
-1.08936 -2.19834  2.75655 111 84 57
-0.00230964     -1.1727     3.37532 107 76 55
-0.578863 -0.233052   3.41137 85 63 40
-0.758496  -0.57866   3.41763 97 90 84
   1.11659 -0.0154376     4.8601 204 203 199
-0.198627  -1.57418   3.18009 113 81 56
-0.149689 -0.139162   3.73051 97 71 48
-0.806419  -2.11932   2.93021 109 91 77
-0.420281 -0.958019   3.14345 105 84 63
-0.577848 -0.111746   3.31687 90 63 42
 -0.3636 -1.06585  3.15904 103 75 51
-0.442749  -1.54312   3.22388 88 63 41
  -4.76496 -0.0236993    7.95273 179 176 171
-0.344624  -1.24604   3.20854 101 71 47
 -1.41451 -0.591352   3.45436 74 52 38
-1.08609 -1.06282  3.46119 108 77 56
 -1.30471 -0.688987   3.39504 79 53 36
-0.115729  -1.43491    3.2387 95 67 45
-0.356698  -1.41104   3.21942 91 65 48
 -1.37634 -0.644777   3.44741 68 49 34
-0.314355  -1.52444   3.18805 93 65 43
0.0135248  -1.49254   3.27589 97 69 48
-0.187713 -0.165822   3.80865 81 56 36
-4.32983 -2.34635  8.83114 139 120 113
 -0.414782 -0.0256205    3.55127 93 68 48
 -0.897577 -0.0961112    3.38417 74 51 33
-2.70075 -2.37629  9.95593 54 53 51
 -4.5563 -2.30004  8.76837 120 100 89
-3.20331 -2.35533  9.44125 27 31 30
 -1.01137 -0.266308   3.54575 67 53 40
 -1.06967 -0.989788   3.44306 96 68 47
-4.01922 -3.97311  8.19748 152 133 119
 -3.9574 -3.91042  8.01311 155 134 117
-2.86228 -2.35309  9.72214 39 34 30
-0.978701 -0.338635   3.63098 135 130 127
-0.0601278   -1.84748     3.3301 162 150 138
-4.37368 -2.45944  9.08969 188 189 184
-4.43736 -2.47636  8.98559 183 182 178
 -1.01196 -0.924941   3.41984 153 144 135
 -1.02538 -0.634681    3.5227 122 117 111
 -1.05684 -0.332658    3.5875 125 120 117
-0.309577  -1.34373    3.2424 165 161 158
-1.23228 -1.14401  3.58824 102 77 57
-0.554529  -1.94179   3.11412 56 42 33
-1.28242 -1.09202  3.59118 164 160 159
 -1.18757 -0.302427   3.51979 141 134 124
 -1.5855 -1.12331   3.9638 134 129 123
-1.03844 -1.20861  3.47162 146 131 124
-4.50793 -2.39009  8.70974 72 67 64
-5.14382 -2.24426  8.01463 113 100 92
-4.18913 -2.38284  8.87672 102 101 99
-0.749339  -1.00995   3.23828 155 145 136
-0.621868 -0.499064   3.44868 123 116 110
 -1.32567 -0.242587   3.56733 123 114 107
-0.953444 -0.891936   3.40433 76 54 40
-4.91355 -2.20088  8.57018 192 188 185
-2.90198 -2.38722  9.30339 192 190 191
  -1.18174 -0.0633656    3.41636 41 24 14
-3.89134 -2.19708  9.41808 185 181 178
-4.40891 -3.86059  8.34982 174 170 161
-0.186392   -1.2437    3.2618 104 74 50
-3.02885  -2.4021  9.37465 213 209 210
-2.87288 -2.40779  9.54322 201 200 198
-5.32654 -1.93934  8.17318 61 60 56
-2.61314 -2.36829  9.91513 198 197 195
-0.738505 -0.576399   3.41013 123 120 115
-0.599327  -1.47477   3.35025 144 136 125
-0.693576  -1.01635   3.20974 105 77 55
-4.83342 -2.41806  8.67699 200 196 195
-0.786142  -1.15889   3.27082 131 122 107
-4.67285 -2.29213  7.49822 196 192 191
-4.49457 -2.30011  7.59386 196 192 191
-0.513764  -1.17379   3.19113 156 126 100
-5.3181 -2.2603 8.15916 50 46 37
 -5.14568 -0.112145   8.35707 104 100 97
 -2.8606 -2.38335  9.74771 52 47 43
-0.384616 -0.211324   3.75259 118 114 111
-0.95021 -1.17534  3.40196 100 70 44
-1.15251 -1.11673  3.52715 137 120 104
 -5.2273 -1.72376  8.25144 85 81 78
-5.23337 -1.72458  8.26296 87 86 82
-0.949969  -1.01617   3.40163 135 125 115
-3.81473 -3.89442  7.91335 141 119 105
-4.06407  -2.4339  9.60367 190 191 185
-4.68615 -3.76393  8.78426 59 55 52
-1.24266 -2.67852  11.3493 81 81 79
-4.14851 -2.38059  8.94101 188 187 185
-2.94137   -2.259  9.23845 180 158 144
-1.25901 -2.71185  11.3622 87 87 85
-0.113393  -1.33556   3.29553 67 54 46
-2.64405 -2.41012  9.98986 40 39 37
 -1.04532 -0.725257   3.50485 143 132 128
-0.0654822   -1.05016    3.28483 136 120 107
-2.85222 -2.26373  9.37908 176 154 140
  -1.0055 -0.306135   3.57624 65 56 49
-1.12582  -1.1817  3.51927 103 78 56
-0.802099 -0.952661   3.24733 86 61 41
-0.515015  -1.82484    3.2888 142 132 123
-0.33654 -1.09974  3.15872 131 115 99
-0.905303  -1.03834    3.3264 136 126 116
-0.960061 -0.773641   3.43091 81 63 53
 -3.2577 -2.34789  9.39769 198 196 197
-1.09731 -1.27307  3.55653 174 160 149
-0.735509 -0.909284   3.21882 123 105 91
 -1.0545 -1.08772  3.44986 121 105 89
-1.30764 -1.13207  3.65244 113 95 81
 -1.17154 -0.204398   3.39808 113 86 59
-4.40776 -2.39854  8.73107 188 189 184
-1.05825 -1.14114  3.43737 103 76 57
-0.895461 -0.722344   3.41321 137 127 117
-0.636969 -0.553491   3.41124 43 34 29
  -3.707 -3.83001  7.47971 199 193 193
-0.162072 -0.894192   3.26229 75 54 37
-0.779102  -2.01921   2.93889 98 71 52
-0.869218 -0.790208   3.34939 119 105 94
  -5.27782 -0.0959597    8.21387 184 180 179
-1.32802 -1.40828  3.87011 123 97 72
-4.56044 -3.93355  8.40791 87 74 66
-0.33637 -1.90397  3.26191 102 77 55
-4.27967 -2.33266  8.79643 146 122 112
-0.895725  -0.93418   3.31859 124 105 90
 -1.22573 -0.318429   3.53064 78 60 48
 -1.03957 -0.111151   3.34885 115 85 61
-0.424807    -1.351   3.24041 114 92 68
-0.751143  -1.17959   3.27209 99 74 52
-0.467666   -1.0004   3.13895 88 59 41
-0.294632  -1.11336   3.17528 86 58 36
-2.51074 -2.18774  10.7006 120 119 114
-0.743643 -0.853795   3.22718 117 98 83
-1.32114 -2.28694  3.73339 84 68 55
-4.02593 -2.61704  11.0129 120 119 115
-0.813674  -0.62276   3.41062 114 97 90
-0.909856 -0.166696   3.40899 107 84 66
-0.0756676  -0.915442    3.31491 82 65 49
-0.805512 -0.173283   3.44569 89 73 60
-0.802267 -0.728658   3.32952 63 46 36
-0.488841 -0.715119   3.21671 94 81 72
-0.760754  -0.09412   3.39203 115 90 68
-0.886363  -1.26976   3.38235 102 77 55
-1.33409   -1.132   3.6843 121 105 92
-0.458596  -0.65039   3.29287 56 43 34
-5.35643 -2.30756  8.11493 199 195 192
-0.360202  -1.31704   3.23001 109 91 79
-0.399624  -1.32333   3.23044 146 134 122
-5.19646  -1.9915  8.30748 193 189 188
-5.23809 -1.77808  8.22601 196 192 189
-0.649474 -0.097859    3.3384 118 92 69
-3.89433 -1.88169  9.51196 187 183 180
 -4.76475 -0.083828   8.68514 184 181 176
-0.614046 -0.704721   3.24121 47 30 20
-0.934578  -1.04324   3.34741 97 83 70
-0.957603 -0.590841   3.52401 99 88 82
-0.753598 -0.120516   3.39408 72 49 31
 -0.838586 -0.0910751    3.40599 124 108 95
-0.624381 -0.459937   3.45759 69 57 45
-0.512295 -0.164183   3.32798 123 95 71
-4.88621  -2.1963  7.79092 163 152 146
-0.850534  -2.04297   2.90937 105 78 57
 -0.706697 -0.0944433    3.36311 114 88 65
-4.48235 -2.50294  8.92914 206 202 199
-0.329494  -1.49917   3.20597 86 61 41
-1.27304 -2.27637  3.71877 88 72 59
-0.286969  -1.95228   3.28478 136 111 89
-4.02753 -1.88377  9.46982 183 179 176
-0.582844 -0.494804    3.4629 53 45 42
-1.11483 -1.31108  3.59334 163 145 135
-5.18886 -1.67264   8.3032 196 195 191
-5.28117 -1.45297  8.22231 197 196 194
-5.27903 -1.34692  8.21403 199 198 194
-0.863251 -0.942993   3.29663 84 63 46
   -1.1493 -0.0970444     3.3532 115 88 67
-0.509661  -0.12121   3.30927 116 88 64
-0.233134  -1.95491   3.28997 109 84 64
-2.66356 -1.98886  2.86183 200 199 197
-4.91582 -1.88419   8.5701 192 188 187
-4.02785 -1.78327  9.46229 185 181 178
-0.692915  -1.25778   3.25518 100 72 48
-4.89189 -3.05755  8.53153 195 191 190
-0.989994  -1.22419   3.43744 104 76 52
-4.72837 -2.52393   8.7352 190 186 185
 -1.2931 -1.12089  3.63219 110 96 85
-4.88099 -3.74618  8.74764 180 176 173
 -4.25773 -0.383697   7.85722 186 185 183
-5.27814 -2.52953  8.22168 205 201 200
 -4.82651 -0.597802    8.6649 195 191 190
-4.64657 -1.88425  8.83948 190 186 185
-3.80707 -1.49263  6.25578 198 194 191
-0.0076344   -1.90046    3.34304 140 124 108
-4.81646  -2.6306  8.65146 195 191 190
 -4.8307 -2.74839  8.67367 203 199 196
-0.361179 -0.171771   3.38752 151 131 122
-0.560439  -1.58547   3.30864 104 83 64
-5.01022 -1.99148  8.48552 198 194 193
-0.408896 -0.837231   3.16444 75 54 37
-1.11676 -1.33463   3.6171 118 100 80
 1.32703 -5.26064  11.8179 142 132 130
 -4.82531 -0.489616    8.6664 192 188 187
-4.5844  -2.393 7.54016 195 191 190
 -4.74302 -0.483893   8.76731 194 190 187
 -4.8324 -1.13358  8.67125 200 199 195
 -0.90905 -0.980586   3.31876 120 107 91
 -1.09967 -0.881021   3.46343 83 69 58
  -4.5547 -0.490097   8.93126 193 189 188
-4.83991 -3.07251  8.68835 196 192 191
-4.64802 -3.60074   8.8461 190 189 187
 -4.7222 -2.63175   8.7331 194 190 189
-4.72349 -2.63598  8.72484 199 195 192
 -5.2313 -1.67058  8.22318 196 195 193
-4.74428 -2.96145  8.76487 199 195 194
-4.73084 -1.77934  8.74093 191 187 186
-4.83589 -1.99689  8.68143 197 193 192
-4.66376 -2.85922  8.87992 201 197 194
-0.611888  -1.96502   3.08892 70 51 36
-4.82068 -1.67163  8.64965 196 192 189
-4.46494 -1.13406  9.02501 192 191 189
 -4.46229 -0.599108   9.01295 195 191 190
-3.53498 -1.11124  5.80388 199 198 196
-4.82953 -3.17821  8.67382 195 191 190
-3.47245 -1.18328  5.86429 198 197 195
 -4.72984 -0.597377   8.73519 194 190 189
-4.82373 -1.24297  8.65687 200 199 195
-4.46981  -1.0266  9.03607 193 192 190
-0.855202  -1.40948   3.43826 135 114 93
  -1.182 -1.07074   3.5352 107 88 73
-4.66176 -3.07285  8.87006 203 199 198
-0.0524893   -1.44106     3.2661 99 71 50
-4.28415 -2.10122  9.19615 196 192 189
-4.82873 -1.77585   8.6681 192 188 187
 -4.63361 -0.600865   8.81692 194 190 189
-4.64584 -1.24111  8.83926 197 193 192
 -5.31971 -0.167559   8.16527 189 185 184
-3.57846  -1.0373  5.70913 194 193 191
-4.63873  -1.0278  8.82876 198 194 193
-3.4752 -1.1102 5.87294 197 196 194
