ply
format ascii 1.0 
element vertex 1214
property float x
property float y
property float z
property uchar red
property uchar green
property uchar blue
end_header
-0.854322 -0.929654   3.64263 79 54 32
 -1.35715 -0.326854   3.96492 85 77 66
-0.983291  -1.54054   3.87913 108 84 60
 -0.54973 -0.797174   3.60574 79 62 52
-1.24119 -1.41793  4.02525 130 116 105
-0.742571  -2.32829   3.41265 111 101 91
-0.785084  -0.32079   3.88858 103 82 65
 -1.47291 -0.692868   3.86458 72 53 38
 -1.45874 -0.422937   3.94808 76 60 47
-0.00122597    -2.03573     3.76583 140 114 91
-1.03777 -1.09027  3.75431 103 84 67
-3.07298 -2.79805  10.7321 204 203 201
-0.274302  -1.45825   3.64952 107 94 77
-3.18438 -2.94352  12.0282 205 204 202
 -1.06126 -0.225169   3.85091 77 55 34
  -1.0743 -0.273564   3.89096 86 63 45
 -1.22044 -0.705488   3.94544 82 69 60
-1.40116 -1.44483  4.16909 155 127 106
-2.71135 -5.87901  12.5517 191 190 188
-0.295148  -1.89794   3.62199 119 90 72
-2.72205 -2.69613  11.1726 206 205 203
-0.930842 -0.128568    3.8408 94 81 72
-0.676859  -1.35324   3.62761 107 81 56
-0.373034  -1.87288   3.61885 122 97 77
-1.08059 -2.36501  3.16999 113 87 70
-0.907284  -2.42381   3.26768 115 103 89
 -1.51733 -0.858076   3.83951 76 53 37
-0.661922  -1.54088   3.70782 110 83 64
-0.310939 -0.890747   3.60932 87 69 55
-0.847293 -0.256373   3.88992 86 68 48
-1.02653 -2.52099  3.17541 120 104 91
-0.520988   -2.0604   3.65936 84 76 65
-0.846487  -2.18117   3.32314 125 99 82
-4.40767 -1.78962  10.6615 164 160 157
-0.421272  -1.15086   3.54458 117 89 68
-1.08393 -2.58065  3.12994 93 75 61
 -1.19769 -0.307025   3.96313 83 73 63
0.967973 -5.58173  13.4768 86 83 78
-1.31776 -1.23051  3.98809 130 112 92
-0.372204  -1.17627   3.55159 94 66 42
-0.164278  -1.54256   3.63806 62 44 30
-0.781438 -0.612847    3.8426 107 98 91
-0.682303  -1.42603   3.66593 109 82 61
-4.4216 -2.3298 10.6132 159 155 152
-0.558341  -1.85198   3.68125 117 95 74
-0.637357  -2.32523   3.45357 119 92 75
-0.994425  -2.49878   3.19522 117 103 92
-0.300279  -1.26093   3.58597 93 66 45
-1.24924  -1.2715  3.95221 98 74 50
-0.92001 -2.26653   3.2746 135 110 90
-0.867348  -1.34379   3.70076 109 82 63
-1.56532 -1.31679  4.23974 108 87 66
-0.483135  -1.88549   3.68696 116 86 62
-1.20972 -2.45217  3.09666 95 69 46
-0.756757  -2.31422   3.40927 138 128 119
-1.00356 -2.31357  3.21725 104 81 63
 -4.1608 -2.28438  10.9162 190 186 183
 -1.06969 -0.093272   3.77847 97 72 52
-0.715294 -0.125206   3.76151 90 64 41
-0.673118 -0.226507   3.80468 100 74 49
-0.452933  -1.85129   3.63003 94 72 49
  -1.4519 -0.903842   3.83018 86 59 38
 1.55182 -5.96028   13.313 114 113 109
-0.861607 -0.900757   3.65658 70 49 32
-0.810938 -0.791658   3.66867 77 59 45
 -1.38457 -0.877171   3.84272 106 78 56
-0.42885 -2.07827  3.66598 116 98 84
  -1.0474 -0.202248   3.84044 78 57 36
 -1.06974 -0.252515   3.87037 75 53 32
-1.24947 -1.71954  4.49305 108 80 56
-4.35961 -2.19934  8.53784 185 184 182
-0.939213 -0.376821   3.94351 70 52 38
-0.945929  -2.37274   3.25754 99 81 67
-0.516805  -1.23788   3.56028 108 78 52
 -1.10769 -0.248115   3.84956 84 59 37
-0.46329 -2.04634  3.65903 129 113 100
-0.854024  -1.46367   3.73714 115 85 61
 -1.29217 -0.859639   3.87797 82 64 50
-0.667893 -0.108773   3.74525 78 51 32
-0.286636  -1.38228   3.62204 100 73 52
 -1.03905 -0.356291   4.02165 117 110 104
-0.629341  -2.13662   3.54636 55 37 25
-0.172687   -1.2524   3.64412 101 73 51
-0.185528  -1.67865   3.60024 125 100 78
-0.715985  -1.34593   3.63334 106 82 56
-0.0836553   -1.60241    3.64641 103 75 53
-1.00116  -2.6549  3.08759 91 73 53
-0.928779 -0.990355   3.68016 89 66 48
-0.179972 -0.924785   3.67594 92 70 57
-0.429361  -1.86384    3.6249 100 75 53
-0.953188 -0.673519   3.85987 71 55 42
  -0.7658 -0.398467   3.89731 63 44 29
-0.87931 -1.23021  3.68558 108 85 67
-0.544324  -1.54875    3.6711 113 97 82
-0.58708 -1.59782  3.68983 121 105 90
-0.494337  -1.92245   3.66375 97 76 57
-1.29128 -0.25879  3.86193 123 95 73
-0.636889 -0.896287   3.56082 78 60 46
 -1.2185 -1.35513  3.97365 135 117 97
-1.11438 -2.65658  3.08909 90 71 54
 -1.12118 -0.974747   3.85126 115 97 85
-0.301452 -0.804114   3.66459 61 47 34
-0.043706  -2.10044   3.74183 108 86 65
-0.577724  -1.24948   3.56472 105 75 49
-0.478007  -1.31492   3.57953 119 88 60
 -1.27196 -0.666784    3.9341 76 63 55
-1.20559 -0.37366  4.03189 79 70 65
-0.610268  -1.96293   3.75123 94 75 61
-1.17761 -2.56555  3.10925 118 99 84
-0.467063  -1.64192    3.6278 99 71 49
-0.87251 -2.33775  3.31785 110 92 80
-0.913315  -1.26662   3.69942 105 78 57
0.100504 -5.90184  11.7139 208 208 206
-0.18552 -1.59749  3.60864 102 79 61
 -0.47267 -0.356741   4.27098 75 64 62
-0.661806   -2.1825   3.47391 109 86 68
-0.901137 -0.160307    3.8673 111 98 90
-0.774278 -0.903948   3.60534 75 54 37
 -1.39136 -0.626174   3.89392 65 49 36
 -0.63732 -0.336423   3.92865 71 54 38
 -1.37418 -0.759474    3.8571 57 38 23
-0.675532  -1.23219   3.58783 107 81 58
 -1.07455 -0.132882   3.79102 115 89 64
-0.732885  -2.14755   3.45518 51 34 26
  -4.93446 -0.0227663    9.73999 166 162 159
-0.327836 -0.245781   4.26652 52 38 29
-1.15619 -2.59432  3.10447 127 108 93
-1.19111 -2.59147  3.09963 96 77 62
 -1.22522 -0.871951   3.91514 109 99 90
 -1.40773 -0.919099   3.83693 79 52 31
-0.41364 -1.78829  3.60757 94 71 55
-0.399065   -1.8808   3.62813 98 80 58
-0.260592  -1.03579    3.5877 87 60 39
-0.503101 -0.237077   3.81823 102 75 54
-0.941996  -0.45435   3.92673 56 37 23
-0.416603  -1.61198   3.61615 82 61 42
 -1.35592 -0.762172   3.86081 85 67 53
-0.336018  -1.88233   3.61389 115 90 68
 -1.50755 -0.687778   3.85842 60 41 26
-0.195731  -1.24604   3.63158 97 75 51
-0.550434  -1.27066   3.57179 132 102 76
 -1.3222 -1.24929  3.99625 123 105 85
-0.343269 -0.308201    4.3422 71 58 49
 -1.34758 -0.440965   3.94711 57 41 28
-1.04086 -1.52792  3.92512 133 114 97
-0.641065 -0.913959   3.56563 63 45 31
  -1.66515 -0.0116802     4.2287 163 158 154
-0.318153  -1.40743   3.63794 103 78 56
-0.954952 -0.972958   3.68501 87 60 39
-0.807958 -0.929504   3.61832 81 62 47
-1.04054 -2.47914  3.18241 116 97 82
-0.729835 -0.459456   3.89215 85 67 53
 -1.03844 -0.161241   3.81734 83 56 37
 -1.27817 -0.723426   3.91057 71 57 46
-0.857067 -0.511253   3.87812 76 54 43
-0.467971  -1.43667    3.6216 104 78 53
-0.255125  -1.53308   3.62984 68 52 39
-1.16174  -2.4012  3.11906 116 88 66
-0.545258  -2.03259   3.67904 98 88 79
0.731926 -5.94988  12.9458 169 168 164
-0.53662 -2.17745  3.58014 135 115 91
-0.753818 -0.180365   3.79932 111 83 61
-0.344418 -0.643177   3.81509 40 26 15
-0.754876  -0.19573   3.82127 106 80 55
-3.13987 -5.99124  11.5544 191 190 186
0.00713092    -1.8507    3.71869 130 96 71
-0.208825  -1.25526   3.62602 109 89 65
-0.850327 -0.350824   3.91156 75 63 49
-0.196684  -1.94596   3.65148 117 91 68
-0.635525 -0.864784   3.57108 67 44 30
 -0.91533 -0.360107   3.92808 74 60 47
-0.461344  -2.03079   3.65144 103 80 62
 -1.4274 -1.32047  4.10543 137 112 92
-0.267002 -0.880368   3.65517 85 63 50
-0.503983  -1.17614   3.53946 109 81 57
 -1.17405 -0.155155   3.78356 117 87 63
-0.108066  -1.35496   3.71007 99 74 54
-0.454327  -1.20017   3.54843 102 76 51
-0.676107 -0.084713    3.7439 95 68 47
 -1.28009 -0.397208   3.99109 74 55 40
-0.276016  -1.18884   3.58969 87 59 37
-1.15317 -2.55358  3.11503 102 83 68
-0.884029 -0.583762    3.8663 85 67 53
-0.519841  -1.00716   3.53277 79 52 31
-0.973307  -1.21252    3.7149 112 84 62
 -1.33194 -0.808611   3.86432 89 73 60
 -1.29011 -0.659713   3.92418 57 44 36
 -1.6891 -1.36562  4.39512 152 134 122
 -1.29583 -0.149478   3.78884 83 59 35
-0.362613  -0.84088   3.61278 84 63 46
 -1.24687 -0.219115   3.80563 103 73 47
-1.56524 -1.61959  4.50165 147 122 100
-0.756036  -0.54133   3.86744 73 56 46
-0.319373  -1.86713   3.59653 102 74 50
-0.662991  -2.30199    3.4646 108 95 86
 -1.1324 -2.59196  3.11315 104 85 70
-0.391809  -1.58544   3.61772 90 71 57
-0.287633  -1.56675   3.61462 72 51 34
-1.08151 -2.33248  3.16608 112 87 67
-0.606675 -0.639627   3.76012 44 31 22
-0.774468 -0.293778   3.87706 114 88 73
-0.135901  -1.31609   3.67937 108 82 59
 -1.36388 -0.951425   3.85527 85 58 37
-0.613244  -2.11352    3.5666 69 50 36
-1.03948 -2.39311  3.19465 127 108 94
-1.47048 -1.34223  4.15905 124 103 86
-0.575497  -1.17699   3.54775 99 69 45
-1.10618 -2.46432  3.15345 104 83 66
-0.972726  -1.18192   3.72285 92 67 47
-0.968976  -1.49148   3.83183 112 95 79
-0.114725  -1.28664   3.68614 114 88 65
 -1.63132 -0.981911   3.90718 115 85 61
-0.944603  -1.08092   3.68183 106 78 56
 -1.03899 -0.745665   3.87987 96 71 51
-0.797353 -0.861558   3.63516 88 67 46
-0.222166  -1.84116   3.61525 101 77 53
0.0276315   -1.8174   3.73144 119 89 65
-0.276339  -1.16243   3.58399 99 75 51
-1.67149 -1.45194  4.41404 107 85 71
-0.264089  -2.12205   3.69208 121 100 79
-0.383151  -1.54521   3.63586 73 56 38
-0.703928 -0.834362   3.60273 64 45 28
-0.607235  -2.00792   3.73948 138 128 119
-0.770815 -0.835871   3.62965 83 61 47
-0.369918 -0.707045   3.70832 74 60 49
 -1.3916 -1.04932  3.90053 102 75 54
 -1.03222 -0.280863   3.93078 86 66 42
-0.550385 -0.661304   3.72317 53 40 31
-0.265822   -1.3233   3.61203 98 74 50
-0.955793  -1.17801   3.70426 106 83 65
 -1.14747 -0.478677   4.05355 86 82 73
-0.514696  -1.37252   3.59869 102 70 45
-1.32429 -0.95401  3.87222 108 84 60
 -0.55729 -0.641817   3.74395 63 50 41
-0.271321  -1.33779   3.62005 112 90 66
-0.277075 -0.707039   3.77795 74 66 55
-0.467436  -2.15377   3.63814 126 104 83
-0.936115  -1.18542   3.68521 91 66 46
-0.822846  -2.39671   3.32583 121 111 99
-0.0243748   -2.07606     3.7535 137 123 110
-0.303314   -1.5941   3.59683 70 52 38
  -1.1039 -0.986049   3.84079 96 82 71
-0.185933  -1.97985   3.66727 104 79 59
-0.393661  -1.12439   3.53912 101 73 49
 -1.38078 -0.687112   3.87913 74 56 42
-0.23528 -1.43922  3.66165 123 110 102
-0.321756 -0.225859   4.24473 66 51 46
-0.743249 -0.189824   3.80238 86 58 36
-1.29575 -1.27404  3.97705 115 96 79
  -1.2153 -0.184448   3.79858 119 89 63
-0.773841  -2.35143   3.39255 111 101 91
-0.266573  -1.24073   3.59744 96 68 47
0.015093 -1.60422  3.69495 78 56 35
-0.794963 -0.840275   3.63892 69 50 33
-1.23016 -2.45668    3.091 124 94 68
 -1.37973 -0.970756   3.85721 96 71 51
-0.333794 -0.315442   4.36262 95 82 73
-0.413729  -1.59355   3.62797 90 63 44
  -4.02982 -0.0123127    7.54616 192 188 185
-0.636711 -0.666167   3.72597 47 38 31
-1.51061 -1.03421  3.87021 121 91 65
-0.567773  -1.84045   3.68423 90 65 43
-0.694215  -2.27991   3.46264 145 134 132
-0.244694  -1.31633   3.62336 108 80 58
 -0.82182 -0.505522    3.8711 69 53 37
-0.446526  -1.86239   3.62889 123 95 73
-0.881977 -0.232921    3.8895 83 64 49
-1.19092 -1.46757  4.01956 111 85 60
-0.255613  -1.35095   3.63294 97 71 48
 -1.43137 -0.463576    3.9401 65 48 32
-0.293656  -1.95244   3.64381 125 108 90
-0.892374 -0.980675   3.66001 104 73 52
-0.95792 -1.19469  3.69574 93 68 48
-0.472621  -2.06234    3.6682 128 111 103
-1.17444 -1.29843  3.90632 109 91 69
-0.400294  -1.26593   3.56163 95 70 48
 -1.34649 -0.538204   3.93385 52 38 27
-0.981003 -0.698354   3.85662 73 54 39
0.223068  -1.8232  3.99066 116 89 68
-1.14856 -2.36555  3.12636 102 75 54
 -1.11245 -0.535649   4.03804 100 95 91
-0.258589  -1.46564   3.65324 124 111 102
-0.95559 -1.57251  3.88429 100 72 48
 -0.87509 -0.677095    3.8285 65 55 46
-0.403577   -1.9465   3.63273 98 76 52
-1.01893 -2.48148  3.18988 106 87 73
-1.25527 -1.07564  3.91113 114 91 73
-0.654768 -0.266266   3.85431 76 57 42
-0.401538 -0.870046   3.57357 82 61 44
-0.705289   -2.3182   3.43924 126 117 110
 -1.25623 -0.650766   3.94945 60 47 38
-0.533648  -2.12409   3.61275 78 62 49
 -1.23604 -0.746399   3.92524 63 51 39
-0.365878  -2.16523     3.683 135 117 97
-0.557554  -1.24737   3.56825 116 86 60
-0.531139  -1.61817   3.66304 92 65 44
 -1.34797 -0.729887   3.87896 64 46 32
 -1.08924 -0.207695   3.83328 93 67 42
-0.830079 -0.910558   3.63107 84 62 48
-0.482372 -0.768627   3.62893 72 50 36
-0.539271 -0.674889    3.7129 67 56 50
-0.438589  -1.53459   3.63725 105 97 86
-0.230113  -1.17263    3.6076 103 85 65
 -0.5275 -1.56153  3.67136 123 107 94
 -1.12442 -0.219106   3.80882 126 96 72
-0.953048  -2.41754   3.23389 101 83 69
 -1.21165 -0.916569   3.90879 97 78 71
-0.30331 -1.14485  3.56692 99 69 45
-0.738442 -0.321096   3.88546 81 60 43
-0.497568 -0.872596   3.58846 81 63 49
-0.977359  -2.39224   3.23951 101 83 69
-0.857237  -2.17628   3.33112 71 49 35
-0.430589  -1.78083   3.60389 111 86 66
-0.165674   -1.5043   3.66535 74 58 45
-1.27979 -1.12853  3.93561 102 83 66
-0.361124  -1.58184    3.6117 86 64 50
-0.13605 -1.48797  3.66819 70 54 41
-0.316699  -1.53007    3.6322 94 71 53
-0.693906 -0.357585   3.90142 86 65 48
-0.912352 -0.272797   3.91607 122 104 94
-0.683775  -1.03825   3.56676 96 69 52
-0.48135 -1.19422  3.55033 100 72 48
-0.742454  -0.13478   3.76771 84 58 35
-1.14696 -1.18439  3.84872 106 88 68
-1.53217 -1.29819  4.18181 124 97 76
-0.731609 -0.377369   3.90319 64 45 30
-0.225419  -1.31868   3.63478 90 65 45
 -1.19793 -0.548747   4.00101 69 55 46
-0.0961601   -2.02527    3.72811 147 128 113
-0.0998339   -1.56729    3.63594 84 59 39
-0.326074 -0.282409   4.30401 69 55 46
-0.12021 -2.00733  3.71633 136 123 107
-0.86231 -1.05059  3.64139 95 72 54
-0.473534  -2.17227    3.6386 127 111 95
-1.57196 -1.48694  4.37123 130 108 84
-0.0201138   -1.61709    3.67285 85 58 37
-0.628896 -0.882665   3.56678 64 43 26
-0.410601  -1.92004   3.62827 119 100 83
-0.765554 -0.887836    3.6033 84 63 46
-0.783854  -1.42915   3.69103 106 80 55
-0.548139 -0.872732   3.57522 91 73 59
-0.913564 -0.338132   3.93629 86 66 55
 -1.18568 -0.176166   3.78587 118 88 62
-0.181682  -2.05253   3.70387 128 114 105
-0.509079  -1.93386   3.66348 99 78 59
-1.19026 -1.16688  3.87878 100 78 57
-0.721352 -0.260608   3.86081 86 65 46
-0.689677  -1.49752    3.7065 115 87 63
-1.08673 -1.14874  3.80733 110 91 74
-0.748499   -2.1605   3.43467 48 34 23
-0.322527  -1.43162   3.64223 118 96 72
-0.641733  -1.38371   3.63777 102 74 50
-0.335911  -1.59401   3.60664 76 58 44
-0.477229  -1.46948   3.63897 120 92 68
-0.127912  -2.06481   3.72321 110 101 92
-0.285574  -1.34746    3.6225 97 73 49
-0.247975  -1.29777   3.62246 108 80 58
-0.330391  -1.14603   3.56025 97 67 43
-0.44771 -2.07002  3.65481 125 111 100
-2.06084 -5.92761  11.7795 205 204 200
-0.548761  -1.57275    3.6713 123 106 90
 -1.51645 -0.988548   3.84066 116 88 64
-0.352989  -2.03989   3.65763 125 99 76
-0.381201  -1.96179   3.64645 119 91 70
-1.12768 -2.47233  3.14233 109 90 75
 -1.04362 -0.129905   3.79922 99 72 51
-0.298022   -1.3349   3.61254 99 71 47
-0.541046   -1.4374   3.63751 101 69 46
-0.500694  -1.28687   3.57741 146 116 90
-0.266213 -0.306811   4.39354 68 58 48
-0.388748  -1.89388   3.62068 117 92 70
-1.27812 -1.39597  4.01494 118 90 66
-0.502449 -0.803035   3.60758 81 59 45
-0.296025   -1.8277   3.59915 107 77 51
-0.800004 -0.816154    3.6536 64 45 30
-1.23431 -1.32616  3.96525 106 84 61
-0.366126  -2.05641   3.65534 110 85 63
-0.838405 -0.883254   3.64126 72 50 36
 -1.5693 -1.05024  3.87722 108 77 49
-0.496901  -2.01624   3.66666 114 98 83
   -0.4926 -0.0742133    3.74247 96 71 49
-0.666674 -0.881582   3.57995 61 44 28
-0.546153  -1.34737   3.59797 102 72 48
-1.55403 -1.15415   4.0222 125 95 71
-0.894299 -0.308124   3.91811 103 87 74
-4.99809 -4.46111  9.31699 122 104 92
 -1.01977 -0.235925    3.8787 81 59 45
 -1.07117 -0.318812    4.0084 78 74 71
-0.0448941   -1.84433    3.67778 130 100 74
-5.30253 -4.37068  8.59779 122 104 92
 -0.89265 -0.398943   3.91599 86 69 59
-0.113413  -1.83239   3.64755 98 71 50
-0.700146  -1.39082   3.64155 133 114 97
 -1.16536 -0.323864   4.01377 88 79 70
-0.655331  -1.26134   3.59101 97 74 56
-0.149889  -1.24648   3.65817 110 82 60
-0.222752 -0.989897   3.61601 89 67 46
-0.50195 -1.98165  3.67002 114 92 79
-0.72654 -2.28802  3.43735 138 127 123
-0.820779 -0.820055   3.66219 65 46 31
-0.207175 -0.188914   4.21734 83 58 38
-0.412295  -1.34538   3.59526 94 67 40
  -2.10706 -0.0156474    3.94944 200 195 191
-1.23039 -2.67115  3.06039 89 63 40
-0.997544 -0.728616   3.86601 95 79 66
-0.515011  -1.65679   3.64984 89 61 39
-0.225337  -1.57325   3.61308 70 51 37
 -1.26904 -0.855258    3.8843 85 68 50
-0.750428 -0.267438   3.86799 86 69 53
-1.04628 -2.52083  3.16428 102 86 73
-0.518958  -1.82412   3.66036 93 64 46
-0.393505  -1.93475   3.62973 112 87 65
-1.12323 -2.64085  3.09467 105 86 72
-0.349721  -1.59947   3.61001 92 79 63
-4.39078 -1.82265  10.6634 188 184 181
-0.841018  -1.43878   3.72287 99 69 45
-1.50694  -1.4368  4.24691 132 115 97
 -1.32616 -0.733479   3.88078 72 53 39
-0.284006  -1.39991   3.63533 126 105 88
-0.487288   -2.0928   3.65319 107 97 87
-0.239855   -1.0803   3.57796 123 104 87
-0.126286  -1.86448   3.65839 126 96 72
-0.64857 -1.00399  3.55133 85 58 37
-1.00499 -2.68194  3.06974 126 100 75
 -1.34932 -0.939223   3.85604 103 76 55
-0.771821 -0.176508   3.80323 103 75 51
-1.18136 -2.49432  3.11814 112 91 72
-0.437166  -2.06348   3.65696 129 110 96
-1.21924 -1.02097  3.88791 96 77 62
-0.290754 -0.819796   3.65438 68 46 32
-0.32925 -1.17299  3.56597 94 64 40
-1.32736 -0.35782  3.96721 93 76 66
-0.860761 -0.197514   3.86038 91 68 50
 -1.27873 -0.107723    3.7773 91 67 43
-0.343014  -1.64666   3.59471 92 67 45
-0.950745 -0.529006   3.91667 60 42 30
-0.0351218   -1.79765    3.67789 111 81 57
-0.133817   -1.6066   3.62625 100 72 48
-0.304922 -0.214055   4.22978 51 34 26
-0.673416 -0.912534   3.55917 69 46 28
-1.17398 -1.16072  3.86698 112 87 67
-0.243446  -1.46221   3.65998 110 100 91
 -0.68823 -0.978564   3.55959 84 57 36
 -1.17901 -0.939648   3.89303 106 84 71
-0.629384  -1.66578   3.72822 106 84 63
-0.809848 -0.560393   3.85657 86 63 49
-0.766768  -1.64351   3.82347 120 106 97
 -1.31698 -0.519803   3.95588 62 49 40
  -1.01538 -0.0904273    3.80771 67 44 28
-1.43355 -1.27754  4.08974 126 101 81
 -1.08975 -0.538982   4.02337 80 75 71
-0.400065  -2.09617   3.67134 131 110 91
 -1.36882 -0.469686   3.93943 53 37 24
-0.942183   -2.4413   3.23833 118 104 95
-0.235623  -1.52649    3.6458 85 68 60
-0.734587 -0.903994   3.59451 70 49 32
-0.107014  -1.81349   3.65139 96 74 53
-0.322375   -1.7916   3.58866 113 83 57
-0.779271  -1.60886   3.80123 111 89 68
-0.278945  -2.01747   3.66423 140 124 109
-1.38022 -1.60351  4.32797 136 106 78
-0.900741  -2.46195   3.25221 106 96 86
-0.709395  -1.66783   3.81823 130 113 97
-0.944762 -0.291994   3.92511 115 102 93
-0.345971  -2.05063   3.65814 110 88 67
-0.942052 -0.665693   3.86142 72 55 45
-0.265726  -1.71694   3.58912 100 72 48
-0.707524  -1.59931   3.76871 118 102 87
-0.280947  -1.82068   3.59391 114 84 60
-0.991873  -2.29662   3.21944 106 78 57
-0.652387  -2.30994   3.46049 99 85 72
-0.885479  -2.30532    3.3032 124 104 93
 -1.40488 -0.772942   3.84245 63 41 27
-0.0104259   -1.59029     3.6762 83 56 35
-0.276085 -0.178659   4.19796 73 51 37
-0.993016  -1.22793   3.72955 101 73 51
-0.527658  -1.04516   3.53508 93 67 44
-0.531074  -1.87136   3.65966 107 76 58
-1.00313 -2.60966  3.12525 93 83 74
-0.93529 -2.55289   3.1798 80 66 57
-0.223149   -1.4168   3.67958 112 91 74
-0.336698 -0.853854    3.6356 81 60 43
-1.06119 -2.58363  3.12844 110 92 80
-0.291171  -1.62933   3.58808 90 67 51
-0.851014   -1.5121   3.74269 113 83 59
-0.599985   -1.2002   3.55296 112 82 56
-0.659567 -0.630161   3.76722 39 30 23
 -1.066 -2.3464  3.1749 106 83 67
-1.46683 -1.10903  3.91832 119 89 63
 -1.38911 -0.767694    3.8505 73 52 35
-1.20862 -2.61486  3.09325 99 76 60
-0.773493  -0.12253   3.78796 92 67 45
-0.819488 -0.769444   3.69065 55 39 26
-0.308524 -0.238967   4.25059 52 38 29
-0.158013  -1.96494   3.67868 113 92 73
-0.378269  -1.25572   3.56632 108 80 56
 -1.30661 -0.256591   3.85612 97 69 47
 -1.31829 -0.380413   3.97199 74 58 45
-0.45423 -1.31304    3.572 121 89 64
-0.495434  -1.96207   3.67542 116 94 80
-0.529823  -1.94269   3.68752 108 86 65
-1.35723 -1.21199  4.01549 114 89 67
-0.780508 -0.117806   3.76591 86 60 37
 -1.40296 -0.885896   3.83688 86 59 38
-0.726342   -1.5274   3.71705 103 78 56
-1.19478 -2.60792   3.0995 110 88 74
-0.740779  -1.19562   3.61137 119 93 66
-0.439184 -0.793889   3.61836 64 42 28
-1.23737  -2.5664  3.08391 93 66 47
-0.935415  -2.49923   3.21836 116 102 91
-0.710682 -0.205293   3.80012 92 66 41
-0.402956  -1.36496   3.58463 106 76 50
-1.01416 -2.35358  3.21439 110 91 77
 -0.32752 -0.202512   4.21857 62 47 40
-0.534703   -2.0127   3.68698 116 106 97
-0.438707  -1.07903   3.53846 113 97 84
-0.755125  -1.57871    3.7621 114 87 66
-0.626062  -1.82524      3.73 104 79 57
-1.46512 -1.43828  4.22124 136 115 98
-0.774956 -0.165877   3.79533 87 59 37
-0.744181 -0.249055   3.86154 87 65 44
-0.666354  -1.31976   3.61926 112 80 57
-0.700501  -1.44431   3.67062 120 97 79
-0.612782  -1.26166   3.58324 110 78 53
-1.03041 -2.59597   3.1326 107 93 84
-0.584522  -1.58079   3.70966 117 104 88
-0.760671  -0.70173   3.72271 59 42 32
-0.649628  -1.41544   3.65214 109 81 57
-0.31712 -2.03277  3.65926 132 113 98
 -1.02164 -0.884693   3.79093 81 69 55
-0.295789  -2.05757    3.6699 128 108 97
-0.188956 -0.137325   4.19151 95 69 46
-4.86579 -4.40856  8.51509 147 121 104
-0.213444  -0.89366   3.66125 91 73 53
-0.906966  -1.44161   3.75446 112 84 60
-0.540434  -1.51471   3.66261 126 105 86
  -0.667454 -0.00134999     3.79751 170 166 163
-0.313821  -1.08246   3.55522 94 67 46
-0.305514  -1.55642   3.61171 87 64 46
-1.15542 -2.41268   3.1236 96 69 48
-0.999097   -2.5511   3.16823 116 102 91
-0.720842 -0.991747   3.57956 93 66 45
-0.87319  -2.4179  3.27894 112 102 93
-1.19516 -0.26308    3.848 104 77 56
-0.688613 -0.233247   3.83324 83 59 33
 -1.55173 -0.713611   3.85128 73 52 35
-0.839694 -0.454215   3.88536 55 36 21
-1.06195 -2.51962  3.15886 111 91 80
-0.551232  -1.73589   3.66075 95 68 51
-1.20393 -2.55695  3.10149 104 85 70
-0.171454  -1.64829   3.60555 106 79 58
-0.673314  -0.41789    3.9127 66 47 33
-1.51119 -0.53764  3.91173 66 44 30
-0.455323  -1.40525    3.6101 112 85 58
-1.16033 -1.27453  3.89623 110 85 65
 -1.19102 -0.721628   3.96255 90 77 69
-0.640006  -2.17572   3.49605 86 63 45
-0.588101  -1.43037   3.63971 110 78 55
-0.805638  -2.40194   3.32916 102 92 82
-0.308925  -1.67728   3.58561 101 73 51
-0.357756 -0.996191   3.55588 90 65 45
-0.841172  -1.06454   3.63469 118 102 89
-1.35055 -0.69557  3.88568 67 49 35
-0.749107 -0.210504   3.80653 85 59 34
-0.96165 -2.36404  3.24546 119 101 87
-0.968323  -2.23979   3.22376 116 86 60
 -1.33854 -0.719502   3.88109 69 51 37
-0.497607  -1.67212   3.64659 91 66 44
-0.774251 -0.375154   3.89857 78 59 44
-0.621854  -2.18358   3.50111 113 87 64
-0.405268  -1.14995   3.54634 96 68 47
-0.260762 -0.161727   4.19296 65 46 31
  -4.16656 -0.0198679    7.63681 205 201 198
-0.354706  -1.33922   3.57463 93 67 40
-0.649463 -0.238631   3.79961 84 59 37
-0.837743 -0.471985   3.88757 65 46 31
-0.445613  -1.59696   3.63787 87 65 44
-0.421612  -1.24145   3.56022 114 96 74
 -1.1289 -2.53386  3.13308 112 93 79
-0.880699  -2.55267   3.17199 88 62 47
-0.303259 -0.191178   4.20216 55 39 26
-0.596595  -1.01681    3.5323 94 66 44
-0.424257  -1.21953   3.55399 116 95 74
-1.04701  -1.3412  3.81468 113 85 61
-1.09808 -2.64215  3.09788 110 92 80
 -5.8978 -4.41002  8.89256 77 68 61
-0.908983  -1.34041   3.71307 125 106 91
-0.794496 -0.273213   3.87413 101 84 68
-1.09305 -2.50724  3.15242 111 92 78
 -1.00248 -0.846445   3.80734 100 87 78
-0.573029  -1.63885   3.68407 99 74 54
 -1.52113 -0.579746     3.903 65 43 29
-0.720803  -2.13226   3.50438 62 44 30
-0.24184 -1.02879  3.59083 92 65 44
-0.0166999  -0.218262    4.38065 195 190 186
-0.0574056    -1.5033    3.69096 62 46 33
-0.786573  -0.53348   3.85244 75 56 41
 -1.59616 -0.553155   3.93567 77 58 44
-0.938408 -0.740476   3.82832 113 106 98
-0.569533  -0.26953   3.88704 71 55 42
-0.920147  -1.18509   3.67307 108 80 56
  -1.0478 -0.151815    3.8096 94 67 46
 -1.54495 -0.798744   3.83911 96 68 46
-0.717724 -0.325866   3.89806 92 73 56
-0.506582    -0.577   3.83548 34 24 15
-0.824794  -1.51304    3.7518 107 77 53
-0.559333 -0.954684   3.55992 81 59 38
-0.958855  -2.55754   3.16802 95 85 76
-5.18942 -4.38815  8.49085 127 105 92
 -1.23787 -0.852217   3.90949 81 68 59
-0.564591  -1.97328   3.70931 104 90 79
-0.924776  -2.40774   3.25603 114 96 84
 -1.0452 -2.46354  3.17514 105 86 71
 -0.2204 -1.50089  3.64017 82 64 50
-0.95611 -2.32807  3.25102 122 104 90
-0.513804   -1.8993   3.66243 100 73 52
-0.580762  -1.88492    3.7034 97 70 49
-0.69362  -1.5772  3.75955 126 110 95
0.00887099   -1.73239     3.6824 101 71 47
-1.04668 -2.61729   3.1249 106 89 79
-0.710502  -1.10328   3.57795 120 108 96
-0.22775 -1.95253  3.64628 118 87 66
-0.11534 -2.10092   3.7156 110 87 69
-0.212184  -1.56349   3.61139 77 59 45
-0.689416  -1.60489   3.76736 127 115 101
-0.942559 -0.956584   3.69615 97 69 47
-0.626282 -0.202279   3.76514 93 65 41
-0.864187   -1.4972    3.7473 107 77 53
-0.491472  -1.70248   3.64001 88 64 40
-0.208187  -1.89932   3.64624 109 81 57
-0.869933 -0.553742   3.87563 79 58 41
-0.379054  -1.09372   3.54345 94 69 47
-0.801328  -0.31306   3.88616 95 74 57
-1.24623 -1.30491  3.96197 112 86 63
-0.553424  -1.96657   3.70222 103 85 73
-1.11286 -1.10846  3.81673 100 73 56
-1.25138 -2.70969  3.05734 108 77 56
-0.586458  -1.38263   3.62516 110 78 53
-1.27367 -2.57262  3.09021 105 77 55
-0.676291  -1.40532   3.65125 114 86 64
-0.509983  -1.40305   3.61325 106 74 49
 -1.50511 -0.296493   4.02213 58 41 31
-0.520322  -1.40695   3.61534 107 75 50
-0.247198 -0.106827   4.15821 65 39 26
-0.516044   -2.2879   3.61947 109 85 59
-0.686204  -2.26708   3.49351 160 157 152
 -5.245 -2.4644   8.641 110 92 78
-0.07726 -1.49379  3.68428 54 38 25
-0.383258   -1.4823    3.6562 160 155 151
-0.113957  -1.42504   3.73658 151 144 138
-0.224629  -1.12458   3.60453 149 146 141
-0.0557648   -1.42741    3.80688 133 126 118
-0.478464  -2.07753   3.66895 153 136 128
-0.120497 -0.971119    3.6947 135 128 120
-0.500317 -0.288238   4.24502 125 120 114
-0.430774 -0.219193   4.21202 117 113 110
-0.437244 -0.347118   4.27677 46 37 32
 -1.10444 -0.470065    4.0725 121 116 112
-0.161422  -1.43701   3.69534 153 144 137
-0.464311  -1.08248    3.5399 140 127 118
-0.343452  -1.47901   3.64934 165 161 158
 -0.967772 -0.0727787    3.81825 64 41 27
  -1.1787 -0.357032   4.02946 125 120 117
 -1.14436 -0.412875   4.06493 59 50 45
-4.79961 -2.70466  10.0344 191 190 186
-0.760107 -0.584441   3.85566 138 129 124
-5.00912 -2.64915  9.73679 82 79 74
-0.466384 -0.693956   3.70196 109 101 90
-0.204623  -1.36658   3.66911 104 74 50
-1.23875 -1.02045  3.90998 97 74 56
-0.185403  -1.28162    3.6449 142 130 116
 -1.32614 -0.322241   3.96254 141 134 124
0.0983782  -2.00174    3.8741 154 147 137
-0.105359  -2.08985   3.72269 95 69 54
-0.946275 -0.259512   3.92323 156 149 143
-0.543015 -0.728869   3.66731 116 111 107
-0.162495   -1.7908   3.61813 134 116 106
-1.36697 -2.98659   12.794 78 78 76
 -0.59363 -0.487485    3.9625 100 90 88
 0.08514 -1.91446  3.86138 161 151 142
-0.261915 -0.965949    3.6093 67 48 33
-0.384952  -1.60511    3.6131 125 107 93
0.188089 -1.60908   3.9041 127 111 98
-1.33471 -2.97361  12.8133 113 113 111
 -2.7903 -2.20231  3.22663 64 60 59
-0.261355 -0.675557   3.82161 112 103 96
-4.90032  -2.5507  8.58397 195 191 190
-0.933447  -2.50066   3.21296 120 106 95
-1.38348 -3.02419  12.7971 110 110 108
-0.386031 -0.186355   4.16666 128 119 112
-7.25783 -3.60226  7.84715 99 95 94
 -1.12322 -0.586028   4.01402 135 128 122
-1.36304 -2.64125  3.07956 188 187 185
-0.374109  -1.20676   3.55163 130 114 101
-0.631414  -0.25242    3.7946 87 62 42
-1.09856 -3.06356  13.4289 107 108 103
-0.0356122    -1.0596    3.74249 74 51 33
-0.306463 -0.856469   3.60665 70 49 32
0.014662 -1.17725  3.78707 124 108 93
-0.582202 -0.309549   3.93027 131 126 120
-0.519197 -0.181874   3.75642 143 131 119
-0.402473  -2.14042   3.66405 138 124 113
-0.0792671   -1.37993    3.75835 100 79 62
-0.418126 -0.951738   3.56002 131 115 102
 -1.41911 -0.634197   3.88869 101 85 72
-0.00404554    -1.91608     3.75359 140 128 116
-0.451978  -1.30037   3.56725 148 117 89
-0.0866829   -1.95613     3.7114 140 122 112
-0.685888 -0.454197   3.90938 99 85 74
-0.326623  -1.21973   3.57085 88 60 38
 -1.15928 -0.952462   3.87742 93 74 60
-0.481222  -1.13333   3.53681 83 56 37
0.0371744  -1.90954   3.80301 134 121 105
-0.624462 -0.516908   3.91942 104 99 93
0.191354 -1.81366  3.93009 109 81 57
-0.521831  -1.09594   3.53043 89 60 42
-1.16602 -2.51324  3.11571 118 96 82
0.000508691    -2.00506     3.74167 95 76 59
 -1.29077 -0.930761   3.88568 83 64 50
 -2.5956 -1.42654  5.02507 126 122 121
-0.496166 -0.353985   4.24832 62 57 51
-0.546969  -2.23893   3.57153 85 71 60
-2.98389 -1.49798  6.06082 136 132 129
-3.10878 -1.50049  6.23212 126 122 119
-1.33535 -0.78108  3.86597 96 80 67
-0.548348  -0.77611   3.62718 95 81 72
-0.28046  -1.4261  3.65172 148 138 126
-0.881579   -1.3009   3.69546 138 122 109
-5.92534 -2.51028  9.13927 54 50 41
-0.859023  -2.27963   3.31464 128 114 103
-0.083966 -0.963875   3.74004 129 116 108
-0.413681 -0.227236   3.85634 141 111 87
-1.19985 -5.74203  14.1766 136 135 131
 -1.10615 -0.138322   3.77684 140 126 113
-0.0678489   -1.90409    3.68694 121 91 67
-0.0380281   -1.02043    3.75438 114 101 92
-0.444178  -1.45635   3.63348 147 135 123
-0.457596  -5.87505   13.3487 165 166 161
-0.661356  -2.38538   3.41427 120 92 68
 -1.29768 -0.768637   3.89379 58 40 26
-0.0241951   -1.19783    3.73091 87 62 42
-0.314191  -2.16257   3.69195 136 111 89
-0.284531  -1.32078   3.60839 129 105 81
-0.308528  -1.00267   3.56502 95 67 45
-0.325118  -1.16024   3.56151 138 108 84
-0.191645  -1.42528   3.68143 105 95 85
 -1.03599 -0.221409   3.86039 101 82 67
-3.79204 -5.85776  11.4252 190 189 187
-0.902702 -0.178555   3.88022 82 68 55
-2.33604 -5.83279  12.7744 190 189 185
-0.141624  -1.83018   3.63546 87 65 44
 -0.46648 -0.206653   3.80087 116 88 64
 -1.25692 -0.868306   3.90033 76 58 44
-0.10902 -1.74991  3.63103 130 103 74
-0.259771  -1.76824   3.60626 121 91 65
-2.86966 -5.85919  12.3423 181 180 178
-0.530258  -0.23066   3.80317 83 56 35
0.0813547  -2.01318   3.84212 96 80 67
0.0567029  -1.97632   3.81705 119 105 92
-0.216183  -1.58809   3.60696 100 82 68
0.0394267  -2.10803   3.79519 128 109 94
-0.64859  -2.2291  3.48862 116 102 91
-3.69023 -5.85568  11.5179 180 179 174
-0.362385 -0.788332    3.6497 65 47 33
-0.804777 -0.589385   3.84241 84 64 53
-0.850222 -0.094248   3.80986 112 87 65
-3.28513 -5.85954  11.9394 179 178 176
 -3.3859 -5.85822  11.8382 185 184 180
-4.61835 -2.60929  10.4153 150 127 111
-0.431813  -1.88858   3.62849 110 84 57
-2.06555  -5.8894  13.2384 196 195 191
-0.683713 -0.495804   3.89951 67 57 47
-0.673348  -2.23642   3.46679 123 104 90
-0.329351  -1.27635   3.58194 117 87 59
-0.134905 -0.192948   4.27235 89 64 44
-0.649965  -2.16834   3.48769 58 41 25
0.105445 -5.93643  13.5242 165 166 161
-1.08701 -2.42726  3.14782 111 92 77
-0.631679 -0.222383   3.79319 80 52 30
-0.407546 -0.211649   3.84669 92 67 45
-1.94888 -5.86451  13.2709 193 192 190
-1.16131 -2.51078  3.12475 124 105 90
-1.32321 -0.89822  3.86974 75 52 38
-0.153095 -0.963554    3.6797 121 111 99
-0.522606  -0.14733   3.74051 127 108 91
-0.0569888   -1.70634    3.64852 110 80 54
-0.672014  -2.15963    3.5033 89 79 70
 -0.59958 -0.336768   3.94172 66 54 40
-0.159456  -1.09941    3.6432 100 72 50
 -0.18462 -0.192237   4.22541 106 80 57
-0.338645 -0.631038   3.81624 68 58 49
-0.588752  -2.21445   3.54546 122 106 90
0.208209 -1.70267  3.91932 119 93 76
-0.137107  -1.17198   3.64817 97 74 56
0.0980738  -2.02141    3.8623 149 136 127
-7.16344 -4.12727  7.87396 171 167 164
-2.57096 -1.40319  3.14925 200 199 197
-0.558849 -0.297523   3.93298 68 55 46
 -1.47241 -0.846282   3.82635 74 52 29
-0.453353  -2.21119   3.64075 95 74 57
0.0171246  -1.55008   3.73836 86 65 48
-1.12494  -5.9618  12.6448 212 212 210
 -1.01356 -0.146015   3.82597 103 85 65
-0.613216  -1.43441   3.64682 124 99 79
-0.539004   -2.3206   3.55602 139 113 90
-1.26258 -0.69932  3.93565 57 44 35
-0.142744  -0.14824   4.23698 92 67 45
  -1.658 -5.90977  13.7076 189 188 184
-0.575623 -0.468354   3.98625 59 54 48
-5.84165  -2.3099  8.94328 197 196 192
-0.787762  -5.99337   12.8189 191 192 187
 -1.05948 -0.122011   3.79153 103 76 55
-0.655417 -0.678541   3.72397 68 59 52
-5.75609 -1.96851   9.2744 196 192 189
0.0967086  -2.09232    3.8461 99 84 65
-0.382638  -1.82083   3.61116 102 75 54
-5.76681 -2.08184  9.12932 199 195 192
-0.175874  -1.61905   3.60599 103 75 53
-0.911739  -2.24878   3.27667 100 72 50
  0.1771 -1.65435  3.87525 92 69 51
-5.75704 -2.08698  9.27046 195 191 188
 -1.14906 -0.164629   3.78217 92 70 47
-0.253608  -1.70667   3.58052 124 94 70
-0.254605  -1.70749   3.58275 131 103 79
  -5.465 -2.08803  9.58524 192 188 187
-0.581494  -2.19059   3.54011 137 113 87
-5.96469 -1.85135  9.09279 197 196 194
-6.01441 -1.96586  8.91529 199 198 196
0.221938 -1.74819  3.94372 119 92 73
-0.264622   -1.8093   3.59803 103 73 49
-0.415585 -0.905083   3.57053 98 77 60
-5.81987  -1.8485  9.20348 197 196 194
-6.04317 -2.56559  8.95279 199 198 196
 -0.11306 -0.165687   4.26963 85 64 47
-5.85652 -1.72576  9.17569 198 197 195
-6.05002 -2.68453  8.95808 199 198 196
0.0164021  -1.64981   3.65913 98 70 49
-0.837969  -5.92146   14.5998 144 143 139
-0.387993 -0.322172   4.31372 58 45 37
-3.02976 -1.33595  4.39725 203 202 200
-0.491337 -0.130643   3.74311 119 92 71
 -1.21067 -0.820641   3.92618 116 103 94
-5.36564 -2.80606  9.68737 202 198 197
-0.48697 -1.94137  3.66032 133 110 92
-1.02235 -5.87258  12.7855 185 185 183
-0.295396  -1.73137   3.57807 99 69 45
 -4.8777 -2.66289  8.55234 195 191 190
-1.21127 -2.65466  3.07826 110 84 67
-5.37288 -2.93015  9.70512 198 194 193
-4.88679 -3.05559  10.2327 195 191 190
0.0135726  -1.20855   3.79994 87 62 42
-1.33177 -5.42897   12.682 190 189 185
-1.74224 -5.76216  13.4957 199 198 194
-5.05528 -2.66182  8.36638 198 194 193
-0.235818  -2.19328   3.70723 143 118 96
-1.19182 -0.84683   3.9226 102 90 78
 -1.15266 -0.227169   3.82011 102 80 66
-4.74153 -5.16575   10.539 198 197 195
-0.745375  -2.27826   3.42634 156 141 134
-5.93251 -1.72954   9.0466 200 199 197
-6.15365 -2.08702  8.86641 199 198 196
-0.173914  -1.96316    3.6681 124 103 84
-5.14564 -3.04438  9.85497 190 186 185
-5.16574 -3.04868  9.88529 194 193 189
-1.32605 -5.99916  12.8424 182 183 178
-5.25905 -3.04856  9.77501 198 194 193
-2.52919 -1.45641     5.12 195 191 190
-0.362409  -1.23354   3.55601 89 62 41
-3.43599 -1.96367  6.76059 190 186 185
0.0472641  -1.58779   3.74598 74 53 36
-2.80174  -5.8711  12.4413 178 177 175
-5.36464 -3.16803  9.69549 193 189 188
-0.234465 -0.799015   3.70843 84 68 55
-5.94211 -1.60856   9.0568 198 197 195
-2.57354 -5.76773  12.6972 188 187 185
-0.404839  -2.19985    3.6724 107 80 63
-0.792896 -0.579271   3.85798 77 59 49
  -1.1248 -0.195079   3.80106 96 78 58
-4.96428 -2.12345  8.45423 194 190 189
-5.75785 -1.72646  9.28137 195 194 192
 -5.2957 -2.93855  9.83853 195 191 190
 -3.3728 -2.04296  6.84984 188 184 183
-0.848047  -1.18864   3.65646 106 80 63
0.0529583  -1.51893   3.78819 86 67 52
-0.146372   -1.9448     3.682 109 87 64
-5.82887 -1.61067  9.13425 198 197 195
-0.013229  -1.15182   3.74574 96 69 48
-0.410012  -1.10012   3.54495 79 56 38
-0.0551892    -1.2619    3.72216 107 79 58
-0.217853  -0.90656   3.65658 86 73 54
-0.670839  -1.08052   3.57017 100 72 51
-4.68475 -3.05875  10.4397 198 194 191
-0.913727  -1.27878   3.69848 109 81 59
 -1.10217 -0.162491   3.78813 93 72 43
 -2.3666 -5.64059  12.8822 191 190 188
-0.315907 -0.970835   3.58399 94 69 49
-0.527747  -2.17245   3.61872 137 112 90
-5.44361 -2.37225  8.73641 198 194 191
 -5.8371 -1.13156  9.14886 202 201 199
-0.751733 -0.910468   3.59634 97 76 59
-0.624153  -2.10203   3.58389 92 70 56
 -0.927798 -0.0778441    3.83271 65 44 27
 -1.15665 -0.749809   3.95202 126 117 112
 -1.25557 -0.990401   3.89725 93 76 60
0.0563422   -1.7079   3.72561 108 80 58
-0.347383 -0.295523   4.32377 92 82 73
-0.96962 -2.40686  3.24161 103 84 69
-0.753303  -1.41887    3.6699 101 75 50
-0.843018 -0.917215   3.64674 104 83 66
-0.0226791   -1.74445    3.68828 98 68 44
-0.195664  -1.97104   3.66181 106 81 61
-0.0370457   -2.09096    3.74339 145 126 109
-0.0159293   -1.83103    3.69005 123 93 69
 -1.15147 -0.825889   3.93423 97 88 81
-1.03157 -0.19959  3.84931 109 90 75
 -1.12662 -0.283502    3.9149 58 39 25
-0.126996  -1.96095    3.6887 132 115 99
-1.30704 -1.55503  4.21391 152 131 112
-0.150685  -1.85337   3.65804 128 97 76
-0.968424  -1.02692   3.71381 85 66 51
-0.982715    -2.592   3.14195 116 103 94
-0.0546164   -1.28574    3.73508 91 63 42
  -0.5101 -0.206401   3.78173 92 66 49
-0.202941  -1.68642   3.59719 94 67 46
-1.00582 -2.43648  3.21033 131 112 97
 -0.46874 -0.951036   3.55251 89 64 44
-0.538935 -0.257447     3.846 93 67 52
-0.626798  -0.77113   3.63342 45 28 18
0.520253 -5.89885  13.8327 119 118 114
-0.236051  -1.90821    3.6356 115 89 66
-0.616985  -0.49127   3.94011 70 61 56
-0.015281  -2.05342   3.75512 150 124 101
-0.508809  -1.91913   3.66561 122 97 77
-0.653515 -0.306439   3.89248 118 104 93
-0.166877  -1.06713   3.62859 113 85 63
-0.988687  -2.38422   3.22781 127 108 93
-1.45655 -1.08441  3.90975 99 71 47
-0.241525 -0.298898   4.37932 92 74 62
-1.16625 -2.67119  3.07755 112 88 76
-1.06248 -2.40127  3.18592 98 79 64
-0.745541 -0.147322   3.78717 101 73 51
-1.52386 -4.63211  12.4714 217 216 214
-0.435444  -1.90459   3.63944 98 73 51
-0.399742 -0.959179   3.55914 81 62 47
-0.263842  -1.28145   3.60392 92 65 46
-0.00497143    -6.31908     15.1563 125 126 121
-0.535275  -0.79804   3.61954 50 33 23
0.0189731  -1.94244   3.78288 108 86 73
-0.110883   -1.1212   3.65658 88 66 43
-3.98209 -2.09598  7.07734 201 197 194
 -1.0875 -5.85205  12.6044 206 206 204
-0.118496  -1.37642   3.72061 119 103 90
-1.32286 -0.71128  3.91825 56 38 24
0.406235 -5.88283   13.815 166 167 162
-0.167932   -1.6705   3.59987 105 77 55
-0.430084 -0.226027   3.85027 90 62 40
-0.140949  -1.74791   3.61702 115 91 65
0.157135 -1.55829  3.92535 85 69 56
 -1.38157 -0.878687   3.83432 106 78 56
-0.274481  -2.20449   3.70584 142 120 97
-1.26871 -5.82887  12.9142 171 172 167
-0.156854  -1.84875   3.63974 127 96 75
-0.745797   -2.3002   3.41972 126 115 109
-4.98646  -2.8293   9.9499 146 142 139
-5.86476 -1.72524   9.0636 203 202 200
 -1.31602 -0.337116   3.97046 97 88 81
-3.52699 -2.75974  8.78011 199 195 192
-0.291147 -0.684116   3.79511 62 52 40
 -0.98599 -0.111964   3.82332 92 67 47
 -1.24416 -0.717116   3.94875 53 40 31
0.466906 -5.88356  13.7462 124 123 119
-0.116854  -1.78032   3.63081 124 96 74
0.207495 -1.92442  4.00906 123 100 82
-1.51102 -0.86109  3.82342 76 53 37
-0.277632 -0.722271     3.758 52 37 30
-0.0110327  -0.886239    3.90071 94 71 57
-3.28562 -1.96675  6.98947 188 184 181
-1.28309 -1.03427  3.91283 108 94 83
-0.958658  -2.26596   3.24109 100 75 55
-0.793621  -0.17064   3.81742 104 76 52
-0.523948  -1.34622   3.59264 119 91 69
-5.32035 -3.62843  9.74845 201 197 196
-0.518734  -1.00695    3.5298 79 52 31
-0.107551 -0.901763   3.75142 101 78 60
-0.398625  -1.78298   3.60554 126 98 74
 -1.12761 -0.698472   3.96622 90 81 74
-0.658308  -1.01274   3.55511 107 81 58
-0.231592  -1.80886   3.59738 109 83 58
-0.648412 -0.432024   3.92792 66 50 34
0.0276356  -1.81779   3.72699 119 89 65
-0.950152  -2.40686    3.2491 121 104 88
-0.292773   -1.6185   3.61529 68 46 32
 -1.17232 -0.746552   3.95445 87 76 72
 -0.949288 -0.0978854    3.83454 69 52 36
-0.342498 -0.309341   4.33948 71 58 49
 -6.2217 -4.37263  7.28586 122 100 86
-1.06357 -2.45156  3.17554 102 83 66
-0.364303 -0.369546   4.36588 74 60 49
-0.131852  -1.55647    3.6284 93 67 50
-0.0233056   -2.07518    3.74881 137 123 110
-3.49334 -5.90732  11.4689 170 169 165
-0.0268785   -1.03963    3.75773 87 69 59
-0.833957 -0.227038   3.85912 85 62 44
-1.07563 -0.13217  3.79319 115 89 64
-0.0723302   -1.26238    3.70124 92 64 43
-0.736857 -0.437635    3.9086 63 44 29
-0.0792511   -1.98801    3.72965 144 119 99
-0.188678  -1.81397    3.6178 123 102 83
-0.376039  -1.94063   3.62772 102 74 53
-0.612119 -0.760591   3.63925 43 29 20
-0.541585  -2.28723   3.56054 108 82 59
-0.390571  -2.18848   3.67976 128 109 94
0.00769285   -1.81201     3.7146 107 77 53
-3.29401 -5.90123  11.2617 175 174 170
-2.50838 -1.51974  5.16192 190 186 185
 -1.03894 -0.169431   3.82815 111 82 64
-0.402271 -0.305754   4.30091 58 48 38
-0.418767 -0.326362   4.29988 65 52 46
-5.86058 -1.85117   9.1506 178 177 173
0.224833 -1.88547  4.01147 135 114 97
-0.0232346   -1.26703    3.75728 102 74 52
-0.628874 -0.292896   3.89857 113 103 94
-0.344899  -2.08674   3.66849 94 69 47
-0.113824  -1.31027   3.69391 100 74 51
-0.165996 -0.151494   4.22698 106 80 57
-0.453961  -1.91775    3.6504 124 105 91
-0.0572718   -2.00752    3.74512 141 119 96
-0.646121  -2.19668   3.47838 140 110 86
 -1.37747 -0.918189   3.84922 85 60 40
-0.993068 -0.158441   3.84034 82 61 40
-0.98611 -2.40087   3.2288 123 106 90
-0.98623 -2.40167  3.22892 119 100 85
-0.444907  -2.18886   3.65879 104 82 68
-0.344478  -1.02974   3.54702 78 57 40
-0.807628 -0.403882   3.89284 77 59 45
-0.150089   -2.0443   3.71551 135 117 103
-0.172048  -1.01049   3.61685 100 73 54
0.0237778  -1.15386   3.78629 94 74 50
  -1.2913 -0.257964   3.86385 117 89 67
-0.0791394   -1.11672    3.68404 102 77 55
 -1.05048 -0.252548    3.8845 94 73 54
 -1.48874 -0.850699    3.8257 75 53 32
-1.17434 -0.25564  3.84541 97 70 49
-0.0570257   -1.23986    3.71835 89 61 40
-0.741266 -0.123517   3.77478 90 64 41
-1.20329 -2.51066  3.10653 113 88 68
-0.975986   -2.4761    3.2113 107 90 80
-0.16196 -2.02385  3.69382 134 117 101
-1.28969  -1.0501  3.92072 125 112 103
-0.233032  -2.14623   3.69991 119 98 77
 -1.30037 -0.342546    3.9822 94 81 73
-0.70702 -2.25056  3.45716 130 120 108
-0.780228  -1.20446   3.62879 114 95 80
-0.976397  -2.41817   3.23217 102 85 69
 -3.3027 -5.91021  11.5531 173 172 168
-4.90531 -2.48596  8.60423 164 146 134
-0.305129  -1.59377   3.60241 70 52 38
-0.554111  -1.05495   3.53325 89 61 39
-0.834793  -2.32483   3.35711 115 101 90
-0.494608  -1.05832   3.53711 88 66 45
 -1.29386 -0.674124   3.94051 73 64 57
-0.791658  -2.26119   3.38133 138 119 104
-1.00632 -0.12135   3.8228 71 50 31
   -1.74492 -0.00742038     3.29417 203 200 193
-0.242683 -0.919011   3.62875 111 104 96
 -1.14008 -0.554987   4.03538 84 79 75
-5.94576 -4.38958   7.6104 120 98 84
-0.36788 -0.76078  3.66647 62 49 40
-0.122334  -1.20782   3.66271 103 76 55
 -1.36254 -0.483262   3.94327 69 53 40
-0.42705 -1.38488  3.60485 100 68 43
 -1.05871 -0.210214   3.83145 98 76 53
-0.644398  -2.15148   3.52544 72 58 47
0.0737595  -1.71444   3.73682 94 66 42
-0.0904464  -0.114054    4.24939 88 64 40
-0.0654111   -1.84439    3.66856 114 86 64
-0.363281  -1.84932   3.60822 105 79 62
 0.24397 -1.61444  3.96121 103 75 53
-0.154163  -1.33725   3.67607 90 64 41
 -1.30359 -0.542833   3.96567 69 56 47
0.262438 -1.69198  3.98461 89 64 44
-0.869942 -0.222174   3.88153 103 82 65
-0.104584  -2.01165   3.72245 126 107 92
-0.128179  -1.78954   3.63079 110 84 67
-0.0687049   -1.39776    3.77753 107 91 78
 -0.42336 -0.383233   4.31504 45 37 26
-0.0764326   -1.68835     3.6374 105 81 57
  -0.2862 -0.932836   3.60429 95 81 70
-0.33353  -2.1157  3.67454 120 94 71
-0.315614  -1.69504   3.58301 108 78 54
 -0.07533 -0.907585   3.78676 103 80 62
-0.340292 -0.194283    4.2085 50 37 28
-1.06956 -5.83138  13.1155 170 169 165
-0.539637 -0.611056   3.77148 58 44 33
-0.319352  -1.03061   3.56274 97 69 48
 -1.12129 -0.271511    3.8655 92 67 45
-0.997491 -0.143864   3.83367 77 56 35
0.205951 -3.16802  15.5187 50 49 45
-0.552797  -1.07496   3.53553 88 60 38
-0.12525 -1.54059  3.65148 92 67 47
-0.551727   -5.8888   12.7411 189 188 186
-0.0740031    -2.1322    3.72415 124 93 65
-0.751317 -0.472554   3.88507 61 42 27
-0.818136  -2.49927   3.22498 102 81 64
0.011797 -1.58754  3.69699 88 67 50
0.117665 -1.59596  3.80625 92 67 47
-0.22073 -1.10666  3.59981 129 116 107
-0.100496  -1.10147   3.67041 93 67 44
-0.685294  -1.49758   3.68324 115 87 63
-0.132549  -1.09685   3.63988 114 86 62
-0.117893 -0.111322   4.24265 96 68 44
-0.746046 -0.404234   3.89521 63 44 29
-0.603658 -0.287111    3.8963 101 88 79
-0.913483  -1.22145   3.68104 93 67 44
-0.271426  -1.33904   3.62143 112 90 66
 -1.18046 -0.613646   3.99186 80 67 59
-0.863919  -2.21231   3.30508 113 86 57
-0.180106  -1.84725   3.62898 121 93 69
-1.05694 -2.33135  3.17644 114 88 71
-0.548647  -2.11169   3.61205 60 46 35
-0.425041 -0.315396   4.29465 68 59 50
-1.20009 -2.53955  3.10836 117 96 79
-0.168573   -1.3759    3.6834 110 87 69
-0.43025 -1.78062  3.60981 111 86 66
 -1.20133 -0.304568   3.92077 62 49 40
-2.87507  -6.1913  14.2508 189 188 186
-0.380401  -1.55885   3.61912 100 79 60
 -1.36733 -0.703596   3.87392 58 40 26
-0.100937  -1.53611   3.67384 84 63 46
 -1.16711 -0.572594   4.01162 77 67 58
-0.233589  -1.50978   3.64366 78 60 50
-0.474704 -0.172801   3.77061 111 83 62
-0.994431  -2.44741   3.22075 103 84 69
 -0.61664 -0.128123   3.72948 86 60 35
 -0.57822 -0.444129   4.00291 85 76 71
 -1.01607 -0.226654   3.87487 77 55 41
0.0155317  -1.13336   3.79178 110 84 59
 0.18959 -1.76754  3.89921 106 78 54
0.223781 -1.58676  3.96183 90 69 50
-0.942555  -2.47747   3.22551 126 112 101
-0.959361  -2.46315    3.2247 119 106 90
-0.51039 -1.70131  3.64282 79 57 36
0.0351463  -1.25562   3.83822 102 74 50
-0.383551  -1.54495    3.6359 75 55 44
-0.575229 -0.327803   3.97713 83 73 64
-0.378363 -0.376602   4.35789 52 38 27
-0.358426 -0.203184   4.20689 73 60 51
-0.203351  -1.09672   3.60473 106 80 63
-0.432282 -0.170334   3.79073 118 88 62
-0.110375  -1.35277   3.70997 100 75 55
   -1.84095 -0.00251258     3.39293 183 180 175
-0.594871 -0.783657   3.62237 63 45 33
-0.494134 -0.412717   4.25424 67 62 58
-0.539427  -2.30506   3.55566 114 88 65
-0.351933  -1.92279   3.62385 112 90 67
-0.00907747    -2.07131     3.75339 125 100 78
-0.0101765   -1.22077    3.76083 112 84 63
-1.29584 -1.10075  3.93599 123 110 101
-0.698331 -0.801983   3.61753 58 39 24
 -1.03508 -0.254006   3.89436 79 56 38
0.232024 -1.79031  3.97822 118 92 67
-0.119212  -1.35007   3.69651 100 74 51
 -0.26808 -0.737224   3.74674 72 53 46
 -1.39737 -0.970012   3.85429 77 51 34
-0.528325  -2.29835   3.56359 117 91 68
  -1.3049 -0.401154   3.97407 59 41 27
-0.474777  -2.11387   3.64514 106 89 79
-0.0527578   -1.18887    3.72338 93 68 48
-0.470277  -0.40179   4.28095 62 55 49
 -1.32614 -0.818109   3.87817 78 56 43
 -1.42279 -0.600746   3.89895 66 50 34
-0.107528   -1.7883   3.63492 98 70 49
-0.331496 -0.271991   4.27928 77 63 54
 -1.29707 -0.513436   3.96501 55 41 30
-0.695304  -1.40631   3.65551 118 95 79
-1.32516 -0.57989  3.93785 75 62 53
 -1.09691 -0.177869   3.80318 117 89 68
-0.926891  -2.46801   3.23178 109 96 87
 -1.32478 -0.954788   3.87645 108 84 60
-0.479091  -1.34456   3.58142 114 82 57
 -0.623586 -0.0897598    3.72972 103 76 55
-1.19263 -2.46788  3.10321 108 83 63
-0.358755  -1.60903   3.61003 95 76 61
-1.03872  -2.4083  3.20634 97 78 63
-0.132384  -1.99416   3.70331 123 104 87
-0.174316   -1.4008   3.68279 121 104 86
-0.582102  -2.08035   3.64492 52 38 27
-0.555468  -2.31689   3.53236 114 88 65
0.0612055   -1.7557    3.7374 112 82 58
-0.773495 -0.473003   3.87627 70 51 34
-0.43227 -1.84957  3.62747 124 99 79
 -1.05873 -0.262933   3.87674 79 58 39
-0.560685  -1.50823   3.66032 110 89 70
-0.299005 -0.253197   4.26786 67 53 44
-0.00492867    -1.60758     3.66972 92 65 44
-1.14717 -2.63081  3.09519 117 98 84
 -1.1873 -2.64357  3.08251 98 75 61
0.0697923  -2.05405   3.81122 118 91 70
-0.479882 -0.791422    3.6173 63 40 24
-1.21217 -0.61354  3.98035 73 60 52
 -1.33247 -0.978185   3.88108 101 79 58
-0.226731  -1.88849   3.62792 98 70 48
-0.397892  -1.91618   3.63676 104 77 56
-0.547315  -2.12965   3.59408 77 59 49
-0.548043  -2.13049    3.5954 76 60 47
-0.882621  -2.49229   3.22951 96 86 76
-1.03672  -2.4319   3.1883 96 77 62
-0.578207  -1.14905   3.54305 95 65 41
-0.707854 -0.433946   3.90949 73 57 44
-0.266391  -1.69984   3.58392 103 75 51
 -1.20448 -0.897234   3.91267 104 87 79
-0.975143    -0.173   3.87525 90 67 49
  -1.2391 -0.488711    3.9954 78 65 57
-0.229893   -1.1546   3.60309 100 87 71
